-0.1625836060 -0.3433513683 -0.1162661659 100 85 52
-0.1623948580 -0.3451469815 -0.1180392362 103 87 54
-0.1623538623 -0.3401025638 -0.1179858852 102 86 53
-0.1627371326 -0.3446241355 -0.1150444880 101 86 53
-0.1625179372 -0.3411363042 -0.1166539293 100 84 51
-0.1622691345 -0.3464187525 -0.1231008611 102 86 53
-0.1647179559 -0.3560298679 -0.1243064089 102 83 51
-0.1636984737 -0.3521733338 -0.1255943164 100 84 51
-0.1632261963 -0.3503930672 -0.1262686275 100 84 51
-0.1626830353 -0.3481617501 -0.1247704147 101 85 52
-0.1633142292 -0.3506632956 -0.1253809350 100 84 51
-0.1631369314 -0.3501134789 -0.1270997585 99 84 51
-0.1640830990 -0.3536907054 -0.1258800989 102 83 51
-0.1640118828 -0.3530954490 -0.1219401316 101 82 50
-0.1650582832 -0.3574017389 -0.1249211073 101 82 50
-0.1627300087 -0.3481092767 -0.1218645737 101 85 52
-0.1623119853 -0.3465984045 -0.1232638269 102 86 53
-0.1630305052 -0.3493456939 -0.1227178163 99 83 50
-0.1623543355 -0.3469621386 -0.1257274161 102 87 54
-0.1635360590 -0.3512385933 -0.1218376457 101 82 50
-0.1628743675 -0.3485896035 -0.1208689499 102 83 51
-0.1648749082 -0.3567339754 -0.1254732515 101 82 50
-0.1629571309 -0.3491219006 -0.1234754868 100 84 51
-0.1653418405 -0.3585814368 -0.1258867582 99 82 52
-0.1629322553 -0.3490116891 -0.1233076631 100 84 51
-0.1628245267 -0.3485283431 -0.1225059960 101 85 52
-0.1629328096 -0.3492575227 -0.1263212958 100 84 51
-0.1644266670 -0.3549987188 -0.1255493581 102 83 51
-0.1635650092 -0.3515963180 -0.1248707368 100 84 51
-0.1625466177 -0.3474382972 -0.1223777075 101 85 52
-0.1626420634 -0.3479795714 -0.1244859282 101 85 52
-0.1646575487 -0.3557720641 -0.1240204466 102 83 51
-0.1632372760 -0.3502974271 -0.1245534922 100 84 51
-0.1643140631 -0.3545033383 -0.1248331013 101 82 50
-0.1629151465 -0.3492234098 -0.1267480604 99 84 51
-0.1642931627 -0.3545075012 -0.1258887718 102 83 51
-0.1626890468 -0.3479444625 -0.1217943548 101 85 52
-0.1626099470 -0.3474881782 -0.1199518574 102 83 51
-0.1629008819 -0.3488211496 -0.1224586040 99 83 50
-0.1636928174 -0.3522084326 -0.1263001520 100 84 51
-0.1629584011 -0.3489191488 -0.1209069949 102 83 51
-0.1633911041 -0.3507131465 -0.1223039012 101 82 50
-0.1648242220 -0.3564588439 -0.1245059355 102 83 51
-0.1629662057 -0.3493809366 -0.1262430178 100 84 51
-0.1634916461 -0.3512157181 -0.1236886161 100 84 51
-0.1640356752 -0.3533869559 -0.1244021136 102 83 51
-0.1629896034 -0.3490097563 -0.1205283949 102 83 51
-0.1629842001 -0.3492310649 -0.1235249653 100 84 51
-0.1645008641 -0.3552783400 -0.1254425877 102 83 51
-0.1674866261 -0.3645290352 -0.1268478173 97 80 52
-0.1694750599 -0.3688436873 -0.1206213946 97 82 49
-0.1690435807 -0.3679183117 -0.1257129903 95 82 50
-0.1694463103 -0.3688074917 -0.1297143978 96 81 52
-0.1678719453 -0.3653672389 -0.1263664005 97 80 52
-0.1667171078 -0.3628476691 -0.1252667127 97 80 52
-0.1689825610 -0.3677774504 -0.1229969201 98 81 51
-0.1692896044 -0.3684609285 -0.1279597443 95 81 52
-0.1677289446 -0.3650588793 -0.1274791031 97 80 52
-0.1689941121 -0.3678073267 -0.1246149839 97 82 51
-0.1663388830 -0.3620263006 -0.1262214332 97 80 52
-0.1695043148 -0.3689383378 -0.1312460971 95 80 51
-0.1674091721 -0.3643608513 -0.1270496026 97 80 52
-0.1694519838 -0.3688178798 -0.1290356498 96 81 52
-0.1684491901 -0.3666298172 -0.1280068967 96 79 51
-0.1685369711 -0.3668072344 -0.1232433286 98 81 51
-0.1675309813 -0.3646226459 -0.1258031760 97 80 52
-0.1676240694 -0.3648291975 -0.1270801440 97 80 52
-0.1682243967 -0.3661391756 -0.1277247562 98 81 53
-0.1693537327 -0.3686093251 -0.1309377525 95 80 51
-0.1681362466 -0.3659354697 -0.1237270689 97 80 52
-0.1685826899 -0.3669095376 -0.1241656326 98 81 51
-0.1667921582 -0.3630161519 -0.1269682420 97 80 52
-0.1679987505 -0.3656516306 -0.1291460271 96 81 52
-0.1669207055 -0.3632968328 -0.1271671865 97 80 52
-0.1695514907 -0.3690127075 -0.1214736336 97 82 49
-0.1685298078 -0.3667896774 -0.1225735507 98 81 51
-0.1684480004 -0.3666252661 -0.1273335314 97 80 52
-0.1694176518 -0.3687179420 -0.1203966058 98 83 50
-0.1686351318 -0.3670281283 -0.1256510594 97 80 52
-0.1693260725 -0.3685223853 -0.1217693400 98 81 51
-0.1695852878 -0.3690860079 -0.1213556831 97 82 49
-0.1759438775 -0.3773426637 -0.1281261666 95 79 53
-0.1770303622 -0.3785909875 -0.1264634308 94 78 52
-0.1754172458 -0.3767291538 -0.1282726610 95 80 51
-0.1748143183 -0.3760115777 -0.1272530102 96 81 52
-0.1743027559 -0.3754304965 -0.1285584057 95 80 51
-0.1757158511 -0.3770774830 -0.1282258071 95 80 51
-0.1759066108 -0.3772793003 -0.1265765480 95 79 53
-0.1746453091 -0.3758286304 -0.1283903751 95 80 51
-0.1745583838 -0.3757566091 -0.1307014085 94 79 50
-0.1749258512 -0.3761852865 -0.1306452566 94 79 50
-0.1748225148 -0.3760701575 -0.1310849198 94 79 50
-0.1746078302 -0.3757747686 -0.1276031726 95 80 51
-0.1771318330 -0.3787147040 -0.1268657814 93 77 51
-0.1735231131 -0.3744927514 -0.1324637689 95 80 51
-0.1725244419 -0.3731111517 -0.1309129274 94 79 50
-0.1736471448 -0.3746539269 -0.1319241078 95 80 51
-0.1717041472 -0.3719824145 -0.1300672641 96 81 52
-0.1729240810 -0.3736646727 -0.1315788929 94 79 50
-0.1738509145 -0.3749011482 -0.1298020412 96 81 52
-0.1738922949 -0.3749950122 -0.1324408793 95 80 51
-0.1735425821 -0.3745048722 -0.1314524489 95 80 51
-0.1717242020 -0.3720113683 -0.1301834271 96 81 52
-0.1723781259 -0.3729363327 -0.1326263309 95 80 51
-0.1704616509 -0.3703211498 -0.1321913830 95 80 51
-0.1735875576 -0.3745340561 -0.1291994207 95 80 49
-0.1710722179 -0.3711522075 -0.1321816211 96 81 52
-0.1729120686 -0.3736458084 -0.1314023298 94 79 50
-0.1693441648 -0.3391583402 -0.1039605019 104 89 56
-0.1672609476 -0.3404118440 -0.1049447704 103 86 56
-0.1662817385 -0.3401280551 -0.1058007431 105 89 56
-0.1701134933 -0.3382865729 -0.1037812177 102 88 53
-0.1656409441 -0.3405190486 -0.1061010617 104 88 52
-0.1680741256 -0.3418742300 -0.1036812463 104 90 55
-0.1673702336 -0.3401614243 -0.1049763329 103 86 56
-0.1686983761 -0.3402061433 -0.1039686137 101 86 53
-0.1706490312 -0.3392182227 -0.1029632584 106 92 55
-0.1708354537 -0.3379227959 -0.1034082841 104 90 55
-0.1695092020 -0.3396275065 -0.1036264054 104 90 55
-0.1701725851 -0.3380572665 -0.1038405908 102 88 53
-0.1676596060 -0.3410066796 -0.1043803400 101 85 52
-0.1668119848 -0.3399728210 -0.1054764056 104 88 55
-0.1617656934 -0.3406482830 -0.1252994762 99 84 55
-0.1622992045 -0.3440806438 -0.1189111474 103 87 54
-0.1621737325 -0.3441277251 -0.1205153214 103 87 54
-0.1622135577 -0.3371893794 -0.1191815041 100 85 54
-0.1619920341 -0.3386663722 -0.1221797334 99 84 53
-0.1621990060 -0.3419191756 -0.1199302662 101 85 52
-0.1623278844 -0.3451292959 -0.1186706582 104 88 55
-0.1623226939 -0.3441509070 -0.1186202520 103 87 54
-0.1621393423 -0.3405938137 -0.1205325426 100 84 51
-0.1621612973 -0.3368945872 -0.1198122107 99 84 53
-0.1620524681 -0.3406428059 -0.1216451923 101 85 52
-0.1620574838 -0.3379379589 -0.1212591153 98 83 52
-0.1621053536 -0.3400112073 -0.1208961793 101 85 52
-0.1620332253 -0.3388803184 -0.1216804239 99 84 53
-0.1620858894 -0.3426894239 -0.1214631637 101 85 52
-0.1620061863 -0.3389464866 -0.1220327927 99 84 53
-0.1620259797 -0.3392536905 -0.1218172083 99 84 51
-0.1618949872 -0.3417014167 -0.1237776569 100 83 53
-0.1618997552 -0.3412146055 -0.1236589265 101 84 54
-0.1622382597 -0.3430986674 -0.1195706474 102 86 53
-0.1622798106 -0.3422399537 -0.1189389885 100 84 51
-0.1622345439 -0.3378211128 -0.1189893775 100 85 54
-0.1622156232 -0.3426765473 -0.1198087667 102 86 53
-0.1621072250 -0.3445858255 -0.1227408383 104 85 53
-0.1621068603 -0.3456063096 -0.1252469398 101 86 53
-0.1621203120 -0.3457628141 -0.1251581396 101 86 53
-0.1620257039 -0.3448482813 -0.1262376173 102 86 53
-0.1619040048 -0.3421220181 -0.1238394728 100 83 53
-0.1618629861 -0.3420175201 -0.1250209597 100 83 53
-0.1621689446 -0.3458029044 -0.1235525828 102 86 53
-0.1619621888 -0.3435879388 -0.1253830555 101 85 52
-0.1619571577 -0.3433425563 -0.1249597475 101 85 52
-0.1620151997 -0.3443943763 -0.1254965403 102 86 53
-0.1620679827 -0.3458512362 -0.1272071727 101 86 53
-0.1621753742 -0.3453582678 -0.1222409953 101 85 52
-0.1619073940 -0.3421566388 -0.1238053441 100 83 53
-0.1620345320 -0.3434918511 -0.1226142466 103 84 52
-0.1619275086 -0.3430371325 -0.1252520625 101 85 52
-0.1630114775 -0.3496801752 -0.1280015778 99 84 51
-0.1645771773 -0.3557664019 -0.1284371788 98 81 51
-0.1642039800 -0.3542620101 -0.1273088798 100 83 53
-0.1634328627 -0.3513585053 -0.1288880019 100 83 53
-0.1646435158 -0.3560520770 -0.1289861474 99 82 52
-0.1630296202 -0.3497661310 -0.1283010715 99 84 51
-0.1632710943 -0.3507094430 -0.1284569411 100 84 51
-0.1653192099 -0.3585628834 -0.1269651291 98 81 51
-0.1643313223 -0.3548629808 -0.1293662069 99 82 52
-0.1641036045 -0.3538937768 -0.1276997643 101 84 54
-0.1653684802 -0.3587381469 -0.1266685507 98 81 51
-0.1651750605 -0.3581013709 -0.1288107980 98 81 51
-0.1657966966 -0.3604046769 -0.1268250198 97 80 50
-0.1650146172 -0.3575342910 -0.1298461445 99 82 52
-0.1642091916 -0.3544056157 -0.1296639468 100 83 53
-0.1636987244 -0.3523505680 -0.1281719767 102 83 53
-0.1653283022 -0.3585854090 -0.1267230688 98 81 51
-0.1649854859 -0.3574028289 -0.1294903331 99 82 52
-0.1690932829 -0.3681318278 -0.1319696504 95 80 51
-0.1674643968 -0.3645878783 -0.1291503118 95 80 51
-0.1666980869 -0.3636417135 -0.1325500901 95 80 51
-0.1665202072 -0.3630332042 -0.1307904686 96 81 52
-0.1666037164 -0.3634915352 -0.1327481642 95 80 51
-0.1667684003 -0.3632682051 -0.1292210910 98 81 53
-0.1664745503 -0.3623483741 -0.1268740044 97 80 52
-0.1677123363 -0.3653418709 -0.1309856770 95 80 51
-0.1684898381 -0.3669834196 -0.1320033480 97 82 53
-0.1671429567 -0.3638926159 -0.1286207668 98 81 53
-0.1664350875 -0.3626637118 -0.1294352154 97 80 52
-0.1669953459 -0.3641813722 -0.1323627475 94 79 50
-0.1664460537 -0.3622947471 -0.1268795585 97 80 52
-0.1675342693 -0.3649338606 -0.1305425089 96 81 52
-0.1672885344 -0.3645111874 -0.1308510508 96 81 52
-0.1681129999 -0.3659771602 -0.1301295555 97 82 53
-0.1667735931 -0.3637945326 -0.1326056758 94 79 50
-0.1705873797 -0.3704944990 -0.1336182872 94 79 50
-0.1703769114 -0.3702073518 -0.1336791175 94 79 50
-0.1709871328 -0.3710397599 -0.1335999482 94 79 50
-0.1712742606 -0.3714295865 -0.1349204109 94 79 50
-0.1723000902 -0.3728294471 -0.1344065650 94 79 50
-0.1708949817 -0.3709152787 -0.1327129756 95 80 51
-0.1726991000 -0.3733732953 -0.1346815310 94 79 50
-0.1721985530 -0.3726894203 -0.1355364553 92 77 48
-0.1695402237 -0.3690626287 -0.1362800508 93 78 49
-0.1699414548 -0.3696113539 -0.1351968907 94 79 50
-0.1726087617 -0.3732498881 -0.1348225990 94 79 50
-0.1704550809 -0.3703140877 -0.1335924097 95 80 51
-0.1709722854 -0.3710156898 -0.1364075451 94 79 50
-0.1703006826 -0.3701026273 -0.1342331759 94 79 50
-0.1716471406 -0.3719395596 -0.1338983696 95 80 51
-0.1716968653 -0.3720044206 -0.1360743779 92 77 48
-0.1621106799 -0.3363786812 -0.1212045200 101 86 55
-0.1618824352 -0.3389386056 -0.1241465353 100 85 54
-0.1616654789 -0.3364413223 -0.1336590272 114 102 80
-0.1617131993 -0.3377037135 -0.1305953968 111 97 70
-0.1619438605 -0.3376191832 -0.1242135767 107 92 61
-0.1617465936 -0.3396970815 -0.1269396203 100 86 57
-0.1618145843 -0.3353902899 -0.1308908385 98 86 62
-0.1618600280 -0.3364345041 -0.1281885131 103 92 62
-0.1616482888 -0.3379312456 -0.1321137862 105 91 65
-0.1619959465 -0.3366271546 -0.1240977319 112 97 66
-0.1618827738 -0.3377165257 -0.1258015944 104 90 63
-0.1618205496 -0.3353237294 -0.1308134771 97 85 59
-0.1618516806 -0.3389253375 -0.1250308626 101 86 57
-0.1618170735 -0.3396947767 -0.1249575755 100 85 56
-0.1618441734 -0.3392918659 -0.1247430658 100 85 56
-0.1618894378 -0.3360391079 -0.1278987065 100 89 57
-0.1618686531 -0.3353283461 -0.1294522719 100 89 59
-0.1618886111 -0.3377917004 -0.1255347823 107 92 63
-0.1619217898 -0.3351221895 -0.1282363953 96 85 53
-0.1619841917 -0.3355222195 -0.1259338582 105 91 62
-0.1618025210 -0.3351913488 -0.1315015979 98 86 62
-0.1619994627 -0.3371382275 -0.1233025591 101 86 55
-0.1621533409 -0.3355454677 -0.1211378233 103 88 59
-0.1617856221 -0.3352889554 -0.1318446350 107 95 71
-0.1619206981 -0.3378875279 -0.1245004727 104 89 58
-0.1619656484 -0.3383655581 -0.1225832457 98 83 52
-0.1618815716 -0.3364496334 -0.1275610931 105 94 62
-0.1616268217 -0.3347957614 -0.1369892934 100 86 60
-0.1618266757 -0.3369930274 -0.1283671712 105 91 64
-0.1617447557 -0.3400542878 -0.1265048343 99 84 55
-0.1618292522 -0.3364890315 -0.1289810920 102 91 63
-0.1618450624 -0.3387336394 -0.1254783865 101 86 57
-0.1616877279 -0.3348390055 -0.1352148662 109 97 71
-0.1619571582 -0.3379255268 -0.1234217538 100 85 54
-0.1617984880 -0.3374767952 -0.1285021831 107 93 66
-0.1617677203 -0.3376025153 -0.1291975632 107 93 66
-0.1620333662 -0.3445707832 -0.1399711661 100 87 55
-0.1620556048 -0.3458070450 -0.1286390177 101 86 53
-0.1620598002 -0.3449567092 -0.1411762093 102 89 57
-0.1618794694 -0.3425546168 -0.1298315028 100 87 55
-0.1620379790 -0.3451363720 -0.1334335611 99 86 54
-0.1619238248 -0.3433155714 -0.1303179381 99 86 54
-0.1619987452 -0.3444064213 -0.1337734055 98 85 53
-0.1619795394 -0.3441448220 -0.1326432705 100 87 55
-0.1620591972 -0.3449743412 -0.1407906883 102 89 57
-0.1620199588 -0.3446665239 -0.1354123112 98 85 53
-0.1620776587 -0.3455787840 -0.1370964736 100 87 55
-0.1619097912 -0.3432548990 -0.1277250860 100 85 54
-0.1619078308 -0.3429494007 -0.1313855385 99 86 54
-0.1619615386 -0.3441042699 -0.1288126358 100 87 53
-0.1620006494 -0.3442305455 -0.1366186647 98 85 53
-0.1619854965 -0.3443227006 -0.1316836467 100 87 55
-0.1619726179 -0.3441164140 -0.1313439246 100 87 53
-0.1619420298 -0.3437440868 -0.1289439495 100 87 53
-0.1618879159 -0.3425697338 -0.1316819180 99 86 54
-0.1620697922 -0.3457555423 -0.1327885454 101 88 56
-0.1620449114 -0.3452085736 -0.1341424585 99 86 54
-0.1618635944 -0.3424177210 -0.1278229344 100 85 54
-0.1619823762 -0.3440968010 -0.1339838632 98 85 53
-0.1618739140 -0.3425090278 -0.1290972200 100 87 55
-0.1619655423 -0.3440203030 -0.1309239779 100 87 53
-0.1626151882 -0.3484192571 -0.1341284104 101 86 55
-0.1645536500 -0.3558672348 -0.1324823730 99 82 54
-0.1644371219 -0.3554339829 -0.1329076052 99 82 54
-0.1638411068 -0.3532732252 -0.1363275683 99 84 55
-0.1622815585 -0.3469420370 -0.1300080474 101 86 53
-0.1634091995 -0.3513737780 -0.1312846971 100 83 53
-0.1642806266 -0.3547467070 -0.1311020541 99 82 52
-0.1636585386 -0.3526742186 -0.1387923315 98 84 55
-0.1629433229 -0.3498808883 -0.1383779751 99 85 56
-0.1631847027 -0.3509076761 -0.1404127908 97 83 54
-0.1628267673 -0.3493578241 -0.1367809639 100 86 57
-0.1639900603 -0.3538907406 -0.1372201383 96 82 53
-0.1641016391 -0.3540694365 -0.1314893286 99 82 52
-0.1642550950 -0.3546811972 -0.1318583660 99 82 54
-0.1630533456 -0.3500071898 -0.1316021334 100 83 53
-0.1644839225 -0.3556187867 -0.1329802661 99 82 54
-0.1635468730 -0.3521103997 -0.1358488829 97 82 53
-0.1633219459 -0.3509926803 -0.1303251626 100 83 53
-0.1632551417 -0.3507988475 -0.1317985670 100 83 53
-0.1644669536 -0.3555134037 -0.1320887848 99 82 54
-0.1635177257 -0.3522040958 -0.1405104280 97 83 54
-0.1635807154 -0.3520599306 -0.1317511474 100 83 53
-0.1632040004 -0.3506507487 -0.1329330037 99 84 53
-0.1624580640 -0.3476033914 -0.1294790663 101 86 53
-0.1624175153 -0.3475008080 -0.1307130849 101 86 55
-0.1640587736 -0.3539915434 -0.1334825832 100 83 55
-0.1642131371 -0.3546558154 -0.1349560043 99 82 54
-0.1629183576 -0.3494429568 -0.1306892267 99 82 52
-0.1639836202 -0.3536022076 -0.1312790008 99 82 52
-0.1634063572 -0.3515689921 -0.1359340210 98 83 54
-0.1635847625 -0.3521936020 -0.1344105363 98 83 54
-0.1646405119 -0.3562014989 -0.1324203939 100 83 55
-0.1633638151 -0.3516957412 -0.1425122476 98 84 55
-0.1638319714 -0.3531470615 -0.1342824774 98 83 54
-0.1634463723 -0.3517309061 -0.1360841662 98 83 54
-0.1628370874 -0.3490565769 -0.1290872858 99 84 51
-0.1643245303 -0.3549573840 -0.1320113514 98 81 53
-0.1622038608 -0.3466126743 -0.1293789771 100 87 53
-0.1633057139 -0.3514785339 -0.1426975132 98 84 55
-0.1641209980 -0.3543316027 -0.1357061451 98 81 53
-0.1639245671 -0.3536288770 -0.1370452520 99 84 55
-0.1624608832 -0.3475565066 -0.1281755570 102 87 54
-0.1625320694 -0.3480649489 -0.1334111540 101 86 55
-0.1631093606 -0.3501640849 -0.1302397143 99 82 52
-0.1638982635 -0.3532602238 -0.1310353075 99 82 52
-0.1646856923 -0.3562941572 -0.1305575258 98 81 51
-0.1642444537 -0.3547789585 -0.1349929452 98 81 53
-0.1627012097 -0.3487353961 -0.1337313406 101 86 55
-0.1639089522 -0.3534922386 -0.1353307515 98 83 54
-0.1654358850 -0.3594244966 -0.1299479669 98 81 53
-0.1652821895 -0.3589097079 -0.1307478225 98 81 53
-0.1658865921 -0.3617684580 -0.1315660379 96 81 52
-0.1657345231 -0.3603134902 -0.1278652311 98 81 51
-0.1659359123 -0.3611528280 -0.1276000664 97 80 52
-0.1659118913 -0.3611763457 -0.1282190033 96 79 51
-0.1654928353 -0.3597556096 -0.1303183837 97 80 52
-0.1654537833 -0.3596748184 -0.1307591866 97 80 52
-0.1654898115 -0.3599642467 -0.1313733623 97 80 52
-0.1658357967 -0.3611388755 -0.1296477777 97 80 52
-0.1663937125 -0.3630422371 -0.1347358303 95 80 49
-0.1661975756 -0.3627225163 -0.1336980799 95 80 49
-0.1661774660 -0.3625424435 -0.1368363689 95 80 49
-0.1685380343 -0.3671120321 -0.1334288662 96 81 52
-0.1674152924 -0.3650396143 -0.1328249381 95 80 51
-0.1666331101 -0.3635209614 -0.1340532515 95 80 49
-0.1673560338 -0.3647882629 -0.1359204774 95 80 49
-0.1662037582 -0.3625956518 -0.1367474902 95 80 49
-0.1660429193 -0.3622565728 -0.1375904571 95 80 51
-0.1678042574 -0.3656691717 -0.1349818574 95 80 51
-0.1668146623 -0.3638822445 -0.1335745392 95 80 49
-0.1670094048 -0.3641832476 -0.1349671719 95 80 49
-0.1664612463 -0.3631009862 -0.1362240470 95 80 49
-0.1659322840 -0.3621129364 -0.1361964312 95 80 51
-0.1679577501 -0.3659613882 -0.1348685567 95 80 51
-0.1675842219 -0.3652337065 -0.1391857253 93 78 47
-0.1678567813 -0.3657412412 -0.1360409771 95 80 51
-0.1683103915 -0.3666630717 -0.1385775662 93 78 49
-0.1695274082 -0.3690149743 -0.1331648582 95 80 51
-0.1689273986 -0.3678558033 -0.1358693049 95 80 51
-0.1680676000 -0.3661916161 -0.1394300628 93 78 49
-0.1668034447 -0.3636902630 -0.1391758844 93 78 47
-0.1663067706 -0.3627070594 -0.1390310513 93 78 47
-0.1681598385 -0.3663600418 -0.1380302492 94 79 50
-0.1686182745 -0.3672443499 -0.1358275834 95 80 51
-0.1685375534 -0.3670944619 -0.1368015777 95 80 51
-0.1688105980 -0.3676045087 -0.1338132099 95 80 51
-0.1677940370 -0.3656400522 -0.1383406799 93 78 47
-0.1690654347 -0.3681074793 -0.1337366983 95 80 51
-0.1674235241 -0.3648959274 -0.1371584383 95 80 49
-0.1675094267 -0.3650695885 -0.1375470792 94 79 48
-0.1692891954 -0.3685578262 -0.1345467339 95 80 51
-0.1615702088 -0.3365265269 -0.1381536743 95 79 53
-0.1616814089 -0.3388678475 -0.1299673345 109 95 68
-0.1616219784 -0.3396788763 -0.1421149444 101 88 56
-0.1616691565 -0.3391913999 -0.1330609714 99 85 58
-0.1616366025 -0.3397023532 -0.1399663836 99 86 54
-0.1615791424 -0.3372840114 -0.1396418855 99 86 54
-0.1616510093 -0.3393495747 -0.1364330598 102 89 57
-0.1615398819 -0.3356930996 -0.1396517775 97 82 53
-0.1616083837 -0.3382738222 -0.1388992067 103 88 57
-0.1615172436 -0.3350184441 -0.1405721294 99 83 57
-0.1616659116 -0.3386823185 -0.1316387351 109 95 68
-0.1616285546 -0.3395079303 -0.1404647379 99 86 54
-0.1617159160 -0.3402672061 -0.1299626538 103 89 60
-0.1616002634 -0.3378569678 -0.1385703534 101 86 57
-0.1615909257 -0.3382924746 -0.1416400513 106 93 61
-0.1616006867 -0.3387932106 -0.1420340686 106 93 61
-0.1615817510 -0.3367151108 -0.1370987957 105 88 62
-0.1616384726 -0.3397065147 -0.1396959962 97 84 52
-0.1616008835 -0.3371518085 -0.1358179101 107 91 65
-0.1616297372 -0.3376140338 -0.1331461958 100 86 60
-0.1616466972 -0.3388097585 -0.1350582395 100 87 55
-0.1616348265 -0.3392305648 -0.1384600000 100 87 55
-0.1616641305 -0.3399742328 -0.1367800912 102 89 57
-0.1615592924 -0.3361433058 -0.1383792714 95 79 53
-0.1616050805 -0.3384403187 -0.1400319933 100 87 55
-0.1616776706 -0.3391090080 -0.1314480479 107 93 66
-0.1615582314 -0.3364578642 -0.1397270664 100 85 56
-0.1615325367 -0.3356267865 -0.1405254395 102 88 59
-0.1615226354 -0.3354079043 -0.1412151272 102 88 59
-0.1617600435 -0.3409732613 -0.1322714915 98 84 55
-0.1616602997 -0.3401933583 -0.1428022252 101 88 56
-0.1616754907 -0.3403014509 -0.1409307134 97 84 52
-0.1618493900 -0.3422971748 -0.1385013393 100 87 55
-0.1617002489 -0.3404433313 -0.1370216573 100 87 55
-0.1617743709 -0.3412150142 -0.1340082483 98 85 53
-0.1616673719 -0.3402085591 -0.1410511938 97 84 52
-0.1617091112 -0.3403547712 -0.1321320100 99 85 56
-0.1616988862 -0.3406224537 -0.1419191201 100 87 55
-0.1617592682 -0.3408301105 -0.1289195425 102 87 58
-0.1617110966 -0.3407470490 -0.1413594088 99 86 54
-0.1618283782 -0.3420474933 -0.1385808903 98 85 53
-0.1618440959 -0.3421447624 -0.1362794761 99 86 54
-0.1618323558 -0.3419715840 -0.1354805288 99 86 54
-0.1618232514 -0.3416838824 -0.1310184599 99 85 56
-0.1618125709 -0.3417749020 -0.1365177626 98 85 53
-0.1619448302 -0.3433221416 -0.1354062535 99 86 54
-0.1619481370 -0.3434149133 -0.1367332547 99 86 54
-0.1617268549 -0.3407436884 -0.1365252031 100 87 55
-0.1619908837 -0.3440587757 -0.1399756619 100 87 55
-0.1617899959 -0.3412470903 -0.1301018475 100 86 57
-0.1617397987 -0.3409144266 -0.1369002206 98 85 53
-0.1617994021 -0.3416805400 -0.1381236646 100 87 55
-0.1617226592 -0.3406311883 -0.1349719768 99 86 54
-0.1617453144 -0.3411761566 -0.1417934746 100 87 55
-0.1617901777 -0.3416500658 -0.1401408639 99 86 54
-0.1618918447 -0.3429770302 -0.1427333413 96 85 53
-0.1617438951 -0.3412124629 -0.1431307003 100 87 55
-0.1620058539 -0.3443562816 -0.1429151690 100 87 55
-0.1617857133 -0.3415816120 -0.1397719092 98 85 53
-0.1618567506 -0.3423247876 -0.1369742759 99 86 54
-0.1622965133 -0.3470047629 -0.1309949039 102 87 56
-0.1625436499 -0.3479769638 -0.1363314123 100 86 57
-0.1622990817 -0.3468537585 -0.1342254338 101 86 55
-0.1624707317 -0.3473500154 -0.1414594184 101 87 60
-0.1622545804 -0.3467335968 -0.1321825545 102 87 56
-0.1623296026 -0.3470273969 -0.1338286735 101 86 55
-0.1624155740 -0.3470894332 -0.1411276292 100 86 59
-0.1627480846 -0.3489863669 -0.1367020977 100 86 57
-0.1621481034 -0.3456791537 -0.1424091215 100 86 57
-0.1621525338 -0.3462646762 -0.1313089650 101 86 55
-0.1625467636 -0.3477688056 -0.1407423642 102 88 59
-0.1629537051 -0.3498570292 -0.1399245991 98 84 55
-0.1630610482 -0.3502506079 -0.1428079814 98 84 55
-0.1626789162 -0.3486701979 -0.1360770498 100 86 57
-0.1621010059 -0.3460676844 -0.1300837420 101 88 54
-0.1625002980 -0.3478317612 -0.1348959528 99 85 56
-0.1625156573 -0.3477476202 -0.1380766015 101 87 58
-0.1631590224 -0.3507602040 -0.1424762842 98 84 55
-0.1626446324 -0.3481535275 -0.1428611938 99 85 56
-0.1623878059 -0.3470581042 -0.1389926516 100 87 55
-0.1625143347 -0.3475659105 -0.1415265800 101 87 58
-0.1628317003 -0.3491471841 -0.1418208118 97 83 54
-0.1622076647 -0.3463390850 -0.1353071507 100 87 55
-0.1621828493 -0.3459312851 -0.1408842287 101 87 58
-0.1623810543 -0.3473583729 -0.1324058307 101 86 55
-0.1627231031 -0.3487535541 -0.1388141189 100 86 57
-0.1624829941 -0.3477223838 -0.1353363535 99 85 56
-0.1627324921 -0.3488589712 -0.1376672376 100 86 57
-0.1624910028 -0.3475270561 -0.1399796353 101 87 58
-0.1638936090 -0.3536713852 -0.1396028050 97 83 54
-0.1647065865 -0.3568729109 -0.1363810189 97 82 51
-0.1639098378 -0.3537019591 -0.1391968450 97 83 54
-0.1642607431 -0.3548999775 -0.1359219604 98 81 53
-0.1645519620 -0.3563930494 -0.1383164114 97 82 51
-0.1639316111 -0.3538725483 -0.1399801076 96 82 53
-0.1648482262 -0.3572413838 -0.1338795627 99 82 54
-0.1646814675 -0.3569197048 -0.1379739280 97 82 51
-0.1644067768 -0.3558381183 -0.1390640727 97 82 51
-0.1639927606 -0.3541336201 -0.1399454488 96 82 53
-0.1648269118 -0.3569744905 -0.1320889777 99 82 54
-0.1644245900 -0.3554623074 -0.1344229985 98 81 53
-0.1642479409 -0.3548365448 -0.1358392850 98 81 53
-0.1644953069 -0.3561499024 -0.1383355718 97 82 51
-0.1641708398 -0.3549203199 -0.1401151644 95 81 52
-0.1658084081 -0.3616980566 -0.1330194125 95 80 51
-0.1652399043 -0.3590149460 -0.1331582381 98 81 53
-0.1648863537 -0.3577171325 -0.1369656918 97 82 51
-0.1653534932 -0.3595073180 -0.1326917395 97 80 52
-0.1650145723 -0.3577124485 -0.1308146295 99 82 54
-0.1651496427 -0.3588940905 -0.1362424770 96 81 52
-0.1651968829 -0.3591143980 -0.1362043706 96 81 52
-0.1649903212 -0.3581615748 -0.1364762454 97 82 51
-0.1651924849 -0.3587319610 -0.1325758853 98 81 53
-0.1657244149 -0.3613674979 -0.1337008020 96 81 52
-0.1649586773 -0.3575233282 -0.1315777320 99 82 54
-0.1659143376 -0.3620655473 -0.1358136033 95 80 51
-0.1655355987 -0.3604446899 -0.1374340692 96 81 52
-0.1656440862 -0.3608958740 -0.1372216403 96 81 52
-0.1655928595 -0.3607246162 -0.1365189729 96 81 52
-0.1656238511 -0.3609520740 -0.1345642009 96 81 52
-0.1657556318 -0.3614895397 -0.1345096890 95 80 51
-0.1652842865 -0.3594569713 -0.1368221403 96 81 52
-0.1655940619 -0.3607559267 -0.1360110497 96 81 52
-0.1655069737 -0.3602768267 -0.1384281672 96 81 52
-0.1673598916 -0.3648835111 -0.1402511402 93 78 47
-0.1659958267 -0.3630799534 -0.1477927582 92 77 48
-0.1681141091 -0.3664217917 -0.1407276449 93 78 49
-0.1680198015 -0.3666304059 -0.1441113656 93 78 47
-0.1674367764 -0.3657258552 -0.1461868013 91 76 47
-0.1657154354 -0.3629054291 -0.1510279344 91 75 49
-0.1685400061 -0.3672779735 -0.1408896707 93 78 49
-0.1681470117 -0.3663709949 -0.1397359172 93 78 49
-0.1664114555 -0.3634062391 -0.1435775992 93 78 47
-0.1660284213 -0.3625810853 -0.1429583651 95 80 51
-0.1665351194 -0.3639124670 -0.1458370391 92 77 46
-0.1657202230 -0.3628959069 -0.1508653306 91 75 49
-0.1669409858 -0.3646320661 -0.1451643275 93 78 47
-0.1665226809 -0.3632158838 -0.1400650502 93 78 47
-0.1671407380 -0.3644986323 -0.1406459771 93 78 47
-0.1677892299 -0.3661233063 -0.1436493899 93 78 47
-0.1669148074 -0.3645707561 -0.1450797974 93 78 47
-0.1687286346 -0.3676195842 -0.1406386262 93 78 49
-0.1661937572 -0.3625030586 -0.1394968894 94 79 50
-0.1666201828 -0.3640617593 -0.1456829564 92 77 46
-0.1669584163 -0.3641595051 -0.1408118701 93 78 47
-0.1663705940 -0.3632752617 -0.1431426907 93 78 47
-0.1668566518 -0.3644293089 -0.1448469610 93 78 47
-0.1665067307 -0.3637588369 -0.1449970179 93 78 47
-0.1660023703 -0.3629119498 -0.1462395295 93 76 48
-0.1662364139 -0.3637047495 -0.1490963685 92 77 48
-0.1671555737 -0.3649525661 -0.1442937128 93 78 47
-0.1661003642 -0.3625838317 -0.1417673169 94 79 50
-0.1664751719 -0.3638423972 -0.1462474172 92 77 46
-0.1671821693 -0.3650105033 -0.1443422338 93 78 47
-0.1670472230 -0.3641801765 -0.1394900401 93 78 47
-0.1676545902 -0.3657830822 -0.1430008346 93 78 47
-0.1619465753 -0.3461659187 -0.1489908984 102 88 59
-0.1618979177 -0.3435006257 -0.1441767018 98 87 55
-0.1618725918 -0.3431639937 -0.1441342755 97 86 54
-0.1618264489 -0.3432161837 -0.1456173695 98 87 55
-0.1619210948 -0.3440715401 -0.1448317939 100 87 55
-0.1618610176 -0.3440072961 -0.1464528105 100 87 55
-0.1619145937 -0.3444630848 -0.1459415293 100 87 55
-0.1619040891 -0.3459898037 -0.1498308716 100 86 57
-0.1617062239 -0.3415106622 -0.1451639467 95 84 54
-0.1618418715 -0.3429312871 -0.1444945909 98 87 55
-0.1616897019 -0.3413576542 -0.1452924248 95 84 54
-0.1620270791 -0.3456520420 -0.1454120438 101 87 58
-0.1618017106 -0.3433152776 -0.1465792248 98 87 57
-0.1618544458 -0.3438815321 -0.1463517418 98 87 57
-0.1618779298 -0.3458654677 -0.1503107741 100 86 57
-0.1620027324 -0.3458096794 -0.1464996128 100 86 57
-0.1623007666 -0.3479335076 -0.1483465097 100 86 57
-0.1624008803 -0.3483415586 -0.1480413916 100 86 57
-0.1632516048 -0.3512049259 -0.1432972613 98 84 55
-0.1620814827 -0.3471081683 -0.1492585474 102 88 59
-0.1623707769 -0.3468315917 -0.1431925229 100 86 59
-0.1626151640 -0.3492358053 -0.1474625825 99 85 56
-0.1621816293 -0.3460974298 -0.1438999792 99 85 56
-0.1620702473 -0.3471235099 -0.1495105187 102 88 59
-0.1623306605 -0.3467258205 -0.1435204143 100 86 59
-0.1626711336 -0.3493779336 -0.1469857354 100 86 57
-0.1629987240 -0.3500874807 -0.1437590723 98 84 55
-0.1619766403 -0.3469827083 -0.1506531369 102 88 59
-0.1621900561 -0.3464370245 -0.1449614050 100 86 57
-0.1622173848 -0.3464229493 -0.1444312897 100 86 57
-0.1627722248 -0.3496510037 -0.1461827285 99 85 56
-0.1623966661 -0.3480101958 -0.1469352944 101 87 58
-0.1627408935 -0.3486708906 -0.1432424440 97 83 54
-0.1635702447 -0.3535882350 -0.1444608177 97 83 54
-0.1633413009 -0.3542926112 -0.1483932078 96 83 51
-0.1634078661 -0.3538693059 -0.1468281818 96 82 53
-0.1637433437 -0.3545990556 -0.1444661138 97 83 54
-0.1634176610 -0.3538356577 -0.1466531639 96 82 53
-0.1635424928 -0.3533698667 -0.1443513001 97 83 54
-0.1633979809 -0.3521003291 -0.1435254365 98 84 55
-0.1630332681 -0.3523988392 -0.1482004515 97 84 52
-0.1639778386 -0.3557365488 -0.1440258499 97 83 54
-0.1639646889 -0.3546725491 -0.1421202871 96 82 53
-0.1632292087 -0.3531910625 -0.1475271769 96 83 51
-0.1629458018 -0.3532675033 -0.1508598522 97 82 51
-0.1642570013 -0.3553725405 -0.1401859155 97 82 51
-0.1632811414 -0.3524795729 -0.1455704538 98 84 55
-0.1636152914 -0.3531468535 -0.1431027507 96 82 53
-0.1637959858 -0.3550727755 -0.1447886823 95 81 52
-0.1642588077 -0.3555105237 -0.1404318991 97 82 51
-0.1639276869 -0.3545947178 -0.1423859435 95 81 52
-0.1643115771 -0.3559253933 -0.1406394664 97 82 51
-0.1633345719 -0.3538911567 -0.1476940907 96 83 51
-0.1634589218 -0.3541476813 -0.1467915970 95 81 52
-0.1641668771 -0.3555333842 -0.1415092071 96 81 50
-0.1652778640 -0.3604300835 -0.1449048620 93 80 48
-0.1654933187 -0.3620272824 -0.1496054251 91 76 47
-0.1655719879 -0.3624742022 -0.1505080422 91 75 49
-0.1653469907 -0.3611834873 -0.1478518481 93 78 49
-0.1650542390 -0.3590409549 -0.1416301949 94 79 48
-0.1654776848 -0.3602770499 -0.1395050503 95 80 51
-0.1650076598 -0.3586362616 -0.1402593093 94 79 48
-0.1654436962 -0.3602414836 -0.1400557138 95 80 51
-0.1653088999 -0.3601376900 -0.1424621027 94 79 50
-0.1654325118 -0.3606170206 -0.1425492897 94 79 50
-0.1655672579 -0.3607548585 -0.1403473224 94 79 50
-0.1649676977 -0.3583513721 -0.1394552681 95 80 49
-0.1655617251 -0.3626557847 -0.1518227452 92 75 49
-0.1657081762 -0.3624229564 -0.1471445990 92 77 48
-0.1651421153 -0.3592395053 -0.1408429945 95 80 51
-0.1653305429 -0.3598119555 -0.1400311226 95 80 51
-0.1652827294 -0.3599489298 -0.1419224663 94 79 50
-0.1653737339 -0.3604572687 -0.1429149129 95 80 51
-0.1627348147 -0.3510836813 -0.1493578817 96 83 51
-0.1628422058 -0.3503779284 -0.1469110245 97 83 54
-0.1626752796 -0.3524870302 -0.1524390498 97 83 54
-0.1627696451 -0.3507831043 -0.1484421417 98 84 55
-0.1628684530 -0.3516810429 -0.1488275391 96 83 51
-0.1628219748 -0.3504712534 -0.1473044475 97 83 54
-0.1621783102 -0.3491461681 -0.1525037018 92 76 50
-0.1625897319 -0.3500210820 -0.1492280163 99 86 54
-0.1624964860 -0.3490131725 -0.1485907807 98 84 55
-0.1622861438 -0.3484474936 -0.1500637806 99 85 56
-0.1625187573 -0.3518102984 -0.1530992663 95 81 54
-0.1623313343 -0.3497946892 -0.1518359412 99 84 53
-0.1627441626 -0.3504273521 -0.1481311451 98 84 55
-0.1628088924 -0.3519337416 -0.1499482069 98 83 52
-0.1624542929 -0.3502236091 -0.1511422919 100 85 54
-0.1628579615 -0.3514666551 -0.1485837566 96 83 51
-0.1621093019 -0.3480449272 -0.1514266124 100 86 59
-0.1627333791 -0.3523473992 -0.1515279853 98 83 54
-0.1642255766 -0.3581190887 -0.1522432629 90 79 51
-0.1646755421 -0.3585788737 -0.1462795871 92 78 49
-0.1641752671 -0.3562532665 -0.1429514618 96 81 50
-0.1644442838 -0.3569520988 -0.1417128746 96 81 50
-0.1646060432 -0.3582416994 -0.1457398627 93 80 48
-0.1653532669 -0.3619361943 -0.1519233076 93 76 50
-0.1641831204 -0.3576285084 -0.1503514758 94 80 51
-0.1653360535 -0.3620346222 -0.1527882176 92 75 49
-0.1636690593 -0.3557218874 -0.1495830307 96 81 50
-0.1654163862 -0.3619754395 -0.1509481528 91 75 49
-0.1651617669 -0.3612700258 -0.1518790528 93 76 50
-0.1634456533 -0.3555072939 -0.1526190974 94 80 53
-0.1637809279 -0.3558920505 -0.1484069207 95 82 50
-0.1638132515 -0.3568821142 -0.1532312895 91 77 50
-0.1639434408 -0.3558057697 -0.1448680422 95 81 52
-0.1644446457 -0.3571091367 -0.1425679672 96 81 50
-0.1638542083 -0.3569407900 -0.1527808097 92 78 51
-0.1645040113 -0.3587423136 -0.1504120554 93 79 50
-0.1645720258 -0.3573584528 -0.1415337177 96 81 50
-0.1641658657 -0.3569512505 -0.1469597411 95 80 51
-0.1642184045 -0.3563220254 -0.1425151933 96 81 50
-0.1644642361 -0.3568830030 -0.1409572961 96 81 50
-0.1642059010 -0.3572980223 -0.1481078852 95 80 51
-0.1647582559 -0.3580872168 -0.1420209341 95 80 49
-0.1651861804 -0.3605359128 -0.1473893178 94 80 51
-0.1651442665 -0.3609008818 -0.1501830637 91 76 47
-0.1627485569 -0.3532461122 -0.1533570243 93 79 52
-0.1640986297 -0.3562893288 -0.1445949290 96 81 50
-0.1644953610 -0.3570749295 -0.1414236244 96 81 50
-0.1647858545 -0.3575752777 -0.1386905443 96 81 50
-0.1639233924 -0.3564009649 -0.1485129792 95 80 49
-0.1647561680 -0.3599656574 -0.1523703115 92 76 50
-0.1638808811 -0.3560332597 -0.1472966432 95 81 52
-0.1636454296 -0.3557844001 -0.1503718406 96 81 50
-0.1636727801 -0.3563122551 -0.1527531358 94 80 53
-0.1642828423 -0.3577657194 -0.1492236178 94 80 51
-0.1632304321 -0.3542923452 -0.1500102418 96 81 50
-0.1651463044 -0.3608156973 -0.1496770820 92 77 48
-0.1645955167 -0.3592568672 -0.1515102557 92 76 50
-0.1649278539 -0.3587071587 -0.1422245851 94 79 48
-0.1639181885 -0.3559527008 -0.1461507970 95 81 52
-0.1647518409 -0.3582603305 -0.1430920850 95 80 49
-0.1645266728 -0.3589296931 -0.1510130644 92 78 49
-0.1646202152 -0.3580495538 -0.1444179422 95 80 49
-0.1648232299 -0.3591948447 -0.1468747138 92 78 49
-0.1652744731 -0.3612669442 -0.1497362745 91 76 47
-0.1649312947 -0.3594287412 -0.1461201573 92 78 49
-0.1646679049 -0.3572881875 -0.1393395874 96 81 50
-0.1644834469 -0.3311183077 -0.0952180273 115 104 72
-0.1654112408 -0.3309938743 -0.0959500410 120 107 75
-0.1645062316 -0.3306814091 -0.0955011444 121 110 80
-0.1643798179 -0.3312042976 -0.0950922075 115 104 72
-0.1640486705 -0.3305382845 -0.0952651102 120 111 80
-0.1617748782 -0.3331956968 -0.0920334363 119 110 79
-0.1656578629 -0.3279501497 -0.0879795794 194 205 201
-0.1670935272 -0.3267913698 -0.0863517440 198 210 206
-0.1659104815 -0.3275876692 -0.0882253877 191 202 198
-0.1649782121 -0.3285436848 -0.0885992984 192 201 196
-0.1644785339 -0.3287782720 -0.0897321347 171 173 160
-0.1646852319 -0.3291529656 -0.0876802690 198 212 212
-0.1642428091 -0.3292249023 -0.0891389786 181 184 173
-0.1641441463 -0.3294669177 -0.0887058580 186 193 185
-0.1642610364 -0.3292002782 -0.0891515791 181 184 173
-0.1661634707 -0.3289133724 -0.0850008322 203 218 215
-0.1659135269 -0.3300268532 -0.0842176778 208 222 222
-0.1662456635 -0.3299695754 -0.0839998667 204 216 214
-0.1651117300 -0.3296737852 -0.0851782214 204 220 217
-0.1659222758 -0.3285489840 -0.0855182166 205 220 217
-0.1679515586 -0.3262883190 -0.0858780248 195 206 202
-0.1624595118 -0.3325196995 -0.0871295279 198 212 212
-0.1645245609 -0.3300041802 -0.0856038033 207 223 220
-0.1621055723 -0.3333654683 -0.0862854010 205 220 217
-0.1631228735 -0.3310523445 -0.0883974718 187 197 188
-0.1634793847 -0.3305385837 -0.0883460117 192 203 197
-0.1628923966 -0.3319161252 -0.0870130536 200 214 214
-0.1637575770 -0.3305646047 -0.0871674364 201 215 215
-0.1620923233 -0.3331849673 -0.0868195506 202 217 214
-0.1633108871 -0.3307527324 -0.0884467841 189 200 192
-0.1656195093 -0.3306642163 -0.0841719179 205 219 219
-0.1628973700 -0.3324692812 -0.0857735339 207 221 221
-0.1658985921 -0.3303637856 -0.0840612954 206 220 220
-0.1625491525 -0.3333603955 -0.0856717956 205 220 217
-0.1645869188 -0.3305948507 -0.0851296744 206 222 219
-0.1621912443 -0.3317343483 -0.0904995775 146 141 119
-0.1614677425 -0.3333952855 -0.0889495359 181 187 177
-0.1617510641 -0.3327030188 -0.0896777832 156 158 145
-0.1626263297 -0.3312853726 -0.0898385170 157 161 144
-0.1626672273 -0.3309835037 -0.0905287659 151 152 136
-0.1617831101 -0.3330921458 -0.0884057687 189 200 196
-0.1610040378 -0.3339548727 -0.0894191527 165 166 150
-0.1664051685 -0.3321665559 -0.0829323989 198 210 210
-0.1637488999 -0.3345534033 -0.0842530989 201 216 213
-0.1632901173 -0.3343852690 -0.0846832664 207 222 219
-0.1645938918 -0.3341828859 -0.0836976183 199 211 209
-0.1656074730 -0.3328100243 -0.0833545397 201 216 213
-0.1664641313 -0.3328923819 -0.0826319406 198 213 210
-0.1660399465 -0.3313635604 -0.0835078054 204 216 216
-0.1650678334 -0.3318673662 -0.0841198547 205 220 217
-0.1654898355 -0.3337821457 -0.0831113869 197 212 209
-0.1633238974 -0.3346985176 -0.0845468459 206 221 218
-0.1631573305 -0.3303475566 -0.0914669731 145 147 126
-0.1637585423 -0.3296910326 -0.0923781548 135 133 112
-0.1631845241 -0.3302937654 -0.0914161555 141 138 119
-0.1627736986 -0.3310021098 -0.0917855068 130 126 101
-0.1622576051 -0.3317853794 -0.0918424343 124 119 90
-0.1634619225 -0.3299154400 -0.0915485668 148 145 126
-0.1622183468 -0.3318626482 -0.0919143182 119 114 84
-0.1630899325 -0.3305666832 -0.0919206581 138 132 110
-0.1636012861 -0.3300140740 -0.0927177654 120 114 90
-0.1600403366 -0.3353896279 -0.0908633336 117 110 81
-0.1612076282 -0.3344167416 -0.0872088720 191 204 197
-0.1597401145 -0.3361267035 -0.0906262486 122 118 91
-0.1586813513 -0.3384415320 -0.0904780423 121 112 83
-0.1600236163 -0.3358679883 -0.0897929078 145 144 123
-0.1607973573 -0.3350202430 -0.0878609824 189 201 197
-0.1597831559 -0.3363977040 -0.0897496147 139 138 118
-0.1605867049 -0.3344301343 -0.0903715455 129 123 97
-0.1697650330 -0.3333035193 -0.0812951006 210 222 218
-0.1681549370 -0.3311118670 -0.0824482955 199 208 205
-0.1698831958 -0.3331960163 -0.0812790836 209 224 219
-0.1673421778 -0.3335954224 -0.0821125052 210 225 222
-0.1701476996 -0.3319904508 -0.0814899551 203 215 213
-0.1688069225 -0.3319349821 -0.0819977830 200 215 210
-0.1666131802 -0.3344124289 -0.0821720024 211 226 223
-0.1676691505 -0.3308315937 -0.0826988158 197 208 204
-0.1690431481 -0.3333335480 -0.0815532047 209 224 219
-0.1696777093 -0.3329706043 -0.0814123757 208 223 218
-0.1624754193 -0.3361105089 -0.0846700894 200 215 210
-0.1606558286 -0.3382275814 -0.0852737844 203 215 211
-0.1621022075 -0.3360787698 -0.0849809838 202 219 213
-0.1614265440 -0.3376355255 -0.0848957671 201 216 211
-0.1642280044 -0.3364607263 -0.0831293789 203 218 213
-0.1616555307 -0.3364446680 -0.0851909284 203 218 213
-0.1627357408 -0.3370684857 -0.0840775235 197 212 207
-0.1634280197 -0.3351428028 -0.0842975800 201 216 213
-0.1651581437 -0.3355800484 -0.0827398741 209 224 219
-0.1616938700 -0.3352882616 -0.0856245632 206 223 217
-0.1597612292 -0.3383087408 -0.0921093784 117 106 76
-0.1584872671 -0.3390096095 -0.0908446633 119 106 74
-0.1589170742 -0.3380678772 -0.0908939059 121 110 80
-0.1597400674 -0.3368007224 -0.0912750868 118 109 80
-0.1594113930 -0.3392910203 -0.0869246283 199 210 206
-0.1601551702 -0.3377782300 -0.0862855696 201 216 209
-0.1602504422 -0.3362605189 -0.0877392161 192 202 201
-0.1598005776 -0.3385336368 -0.0865505839 199 214 209
-0.1597756235 -0.3373937322 -0.0879529565 193 205 201
-0.1597405393 -0.3390879636 -0.0861008864 203 215 211
-0.1611110228 -0.3350832201 -0.0863351603 206 221 216
-0.1590602753 -0.3381727023 -0.0893516132 164 163 145
-0.1587245839 -0.3388773210 -0.0896147046 161 158 139
-0.1682518214 -0.3353490155 -0.0814790830 211 223 221
-0.1685800677 -0.3345465589 -0.0814686307 211 223 219
-0.1675636562 -0.3353223500 -0.0816844654 210 222 220
-0.1670696007 -0.3389222361 -0.0814433977 216 227 223
-0.1691412962 -0.3342536558 -0.0813349114 211 223 219
-0.1685761341 -0.3352743304 -0.0813916589 211 223 221
-0.1684205609 -0.3367914069 -0.0812745779 214 226 224
-0.1653737575 -0.3420260241 -0.0816092618 208 220 216
-0.1668940112 -0.3378753606 -0.0816074584 213 225 221
-0.1669058713 -0.3357375378 -0.0818334725 210 222 220
-0.1679670326 -0.3354634880 -0.0815506042 212 224 222
-0.1675834875 -0.3351063841 -0.0817018142 210 222 220
-0.1718338001 -0.3326247976 -0.0807174004 201 212 206
-0.1694867766 -0.3357873540 -0.0810685911 213 225 223
-0.1653975822 -0.3407696131 -0.0817371315 212 227 224
-0.1638899193 -0.3403422607 -0.0825913961 213 223 222
-0.1622167691 -0.3399441745 -0.0837630942 197 212 209
-0.1626460154 -0.3423458302 -0.0830340583 206 221 214
-0.1631958865 -0.3381780139 -0.0834498898 204 219 214
-0.1636994576 -0.3405427265 -0.0826789826 213 223 222
-0.1641822784 -0.3401183851 -0.0824413301 213 223 222
-0.1624502385 -0.3424576737 -0.0831416430 209 221 217
-0.1642212575 -0.3383323685 -0.0827485234 209 221 217
-0.1643342328 -0.3426380942 -0.0818721930 207 222 219
-0.1636646902 -0.3392761498 -0.0829377714 210 222 218
-0.1638192716 -0.3390481197 -0.0828788568 210 222 218
-0.1636873798 -0.3386040228 -0.0830481153 210 222 218
-0.1649655752 -0.3388019000 -0.0821727959 212 224 220
-0.1615767576 -0.3404032445 -0.0840973878 204 216 214
-0.1635466271 -0.3395437215 -0.0829653640 210 222 218
-0.1628130098 -0.3394129130 -0.0834709631 200 215 212
-0.1591163648 -0.3410330374 -0.0920573422 118 105 71
-0.1582544503 -0.3429016758 -0.0910619027 112 105 76
-0.1586610434 -0.3417460601 -0.0915033209 116 103 69
-0.1584320766 -0.3434075735 -0.0913585873 114 105 74
-0.1590356387 -0.3410991917 -0.0880620324 189 201 199
-0.1588047271 -0.3412373141 -0.0888730459 187 196 191
-0.1586661598 -0.3403165700 -0.0892958929 170 172 158
-0.1592446946 -0.3402362648 -0.0872808508 195 206 202
-0.1592907237 -0.3410069058 -0.0871699515 200 211 207
-0.1586010817 -0.3399645466 -0.0894995965 161 162 144
-0.1585785699 -0.3424863328 -0.0897381966 153 154 136
-0.1582380831 -0.3440544493 -0.0910208444 121 116 87
-0.1584290358 -0.3425303480 -0.0902605045 128 126 103
-0.1602304160 -0.3425684417 -0.0846986816 208 218 217
-0.1615826083 -0.3435377998 -0.0836062926 205 220 213
-0.1594448018 -0.3415550148 -0.0853950300 207 217 216
-0.1593969123 -0.3437326419 -0.0851307014 207 219 217
-0.1616249838 -0.3443382050 -0.0834665727 207 220 213
-0.1589459459 -0.3444029497 -0.0853589083 206 218 216
-0.1604627418 -0.3442958390 -0.0842971726 203 215 211
-0.1617078933 -0.3441184874 -0.0834378343 205 220 213
-0.1593630841 -0.3428097250 -0.0852811386 209 220 216
-0.1592688473 -0.3445807498 -0.0851054013 208 220 218
-0.1587432279 -0.3429688876 -0.0891032425 185 188 177
-0.1588764621 -0.3430377773 -0.0875597758 200 211 207
-0.1586536603 -0.3438374863 -0.0882278688 189 200 194
-0.1586467629 -0.3438607483 -0.0882516773 189 200 194
-0.1586041817 -0.3439743049 -0.0884614940 184 195 189
-0.1585504706 -0.3444994272 -0.0879276744 190 202 198
-0.1586215860 -0.3436314832 -0.0889954922 186 192 182
-0.1587936668 -0.3441402938 -0.0861241724 201 217 214
-0.1587099035 -0.3435393470 -0.0882604956 192 201 196
-0.1581536536 -0.3452697436 -0.0906668039 136 134 109
-0.1579097923 -0.3478758585 -0.0885865652 158 164 152
-0.1582032024 -0.3457181481 -0.0893419157 178 184 172
-0.1579850905 -0.3471144232 -0.0891515723 177 183 171
-0.1583337684 -0.3448952006 -0.0894328251 181 185 171
-0.1573904240 -0.3498732439 -0.0905054372 98 85 53
-0.1578519474 -0.3471265966 -0.0905367533 136 130 104
-0.1584586124 -0.3453548907 -0.0872921186 194 206 202
-0.1583465199 -0.3451686909 -0.0888093502 185 195 187
-0.1575725017 -0.3487679925 -0.0905564970 119 106 72
-0.1583451589 -0.3455281313 -0.0881814096 190 201 195
-0.1618550313 -0.3301225722 -0.1505625651 110 98 72
-0.1618947459 -0.3300757447 -0.1504363732 109 95 68
-0.1650112461 -0.3255810926 -0.1479547836 120 114 92
-0.1624965216 -0.3295553345 -0.1468124264 81 70 42
-0.1623924489 -0.3295746273 -0.1480790902 94 82 56
-0.1633558044 -0.3282776052 -0.1464762922 93 84 55
-0.1632224026 -0.3283125821 -0.1480071805 104 94 67
-0.1634556994 -0.3288234281 -0.1401530298 118 110 87
-0.1623534204 -0.3298126159 -0.1464657222 79 68 40
-0.1637183885 -0.3274500118 -0.1489449267 119 109 82
-0.1631619121 -0.3293532180 -0.1394268529 93 81 55
-0.1627422739 -0.3295632627 -0.1433373276 89 78 50
-0.1635124715 -0.3285309799 -0.1420135468 148 137 115
-0.1624538442 -0.3298317791 -0.1449015514 84 73 45
-0.1633972553 -0.3286044636 -0.1429440928 90 80 55
-0.1624126211 -0.3297546406 -0.1461705626 78 67 39
-0.1625155935 -0.3297150607 -0.1451027393 78 67 39
-0.1635941390 -0.3276812562 -0.1485727939 116 106 79
-0.1629278778 -0.3291904417 -0.1441410909 87 76 48
-0.1638359248 -0.3274659586 -0.1471728812 106 97 68
-0.1655160954 -0.3247661494 -0.1483387440 101 95 73
-0.1646087497 -0.3261834233 -0.1480775706 119 111 90
-0.1644608194 -0.3267199073 -0.1452708827 136 127 110
-0.1629788917 -0.3294286348 -0.1412789028 132 120 96
-0.1653566284 -0.3253660603 -0.1454736927 129 118 100
-0.1642990539 -0.3275428072 -0.1406016279 112 102 77
-0.1656969052 -0.3246352698 -0.1472693868 106 98 79
-0.1650802632 -0.3260425529 -0.1433931594 129 118 98
-0.1657660467 -0.3256793762 -0.1386911531 116 108 87
-0.1657903785 -0.3252167209 -0.1418970789 104 96 77
-0.1661657781 -0.3247692313 -0.1411880460 111 103 82
-0.1636199050 -0.3286883641 -0.1393648468 103 91 67
-0.1653300916 -0.3254832478 -0.1448822530 144 133 113
-0.1643273640 -0.3277062964 -0.1390691159 103 91 65
-0.1650809006 -0.3259691667 -0.1439365688 131 120 98
-0.1653173535 -0.3260709127 -0.1406133670 103 95 74
-0.1657328461 -0.3249438869 -0.1445659597 124 117 98
-0.1639223548 -0.3280518078 -0.1408634701 125 117 94
-0.1654176154 -0.3261160999 -0.1391889152 112 101 79
-0.1648358786 -0.3267210731 -0.1409511463 109 98 76
-0.1641673529 -0.3274624181 -0.1426304645 95 83 67
-0.1615857204 -0.3336864233 -0.1424223364 108 94 68
-0.1624823409 -0.3309778106 -0.1412354794 99 85 58
-0.1621940175 -0.3300213389 -0.1468022321 83 69 42
-0.1628967749 -0.3297943721 -0.1404924501 113 101 75
-0.1620005306 -0.3326674217 -0.1412090266 88 71 43
-0.1622923187 -0.3314454412 -0.1417889290 96 82 55
-0.1623290694 -0.3316106128 -0.1409566397 88 74 47
-0.1623959696 -0.3310762998 -0.1418106752 110 96 69
-0.1626292312 -0.3306779300 -0.1406328592 92 78 51
-0.1616577958 -0.3331796334 -0.1431470712 116 101 78
-0.1619844145 -0.3324267976 -0.1420512194 92 76 51
-0.1624524174 -0.3298687109 -0.1446784278 84 73 45
-0.1623874155 -0.3310262059 -0.1420374494 110 96 69
-0.1630303833 -0.3297481490 -0.1393015495 92 80 54
-0.1624656977 -0.3305792525 -0.1425309949 127 113 86
-0.1622902627 -0.3304871109 -0.1445283509 86 72 45
-0.1623709200 -0.3313736895 -0.1412147541 91 77 50
-0.1619819142 -0.3314827737 -0.1447544461 92 78 52
-0.1624237566 -0.3301038859 -0.1442947620 82 71 43
-0.1672853320 -0.3238591542 -0.1396110141 125 117 98
-0.1672676704 -0.3236436347 -0.1423040134 125 118 99
-0.1662554018 -0.3242445288 -0.1457805515 115 108 89
-0.1673712205 -0.3238144763 -0.1392425857 123 115 94
-0.1682134198 -0.3230125094 -0.1398679553 116 108 87
-0.1678567591 -0.3233940355 -0.1391150573 114 106 85
-0.1675822218 -0.3235689769 -0.1399184763 118 110 89
-0.1683283544 -0.3229634193 -0.1392503364 112 104 83
-0.1676469662 -0.3234953156 -0.1401064341 119 111 92
-0.1647069027 -0.3272220447 -0.1383330219 98 86 62
-0.1641365448 -0.3278993613 -0.1360093952 99 84 61
-0.1633991509 -0.3288288489 -0.1340642391 98 86 62
-0.1632333374 -0.3291034238 -0.1349171549 100 84 58
