-0.2422325070 -0.2918129990 -0.0949986697 211 224 217
-0.2416951138 -0.2891509920 -0.0951148218 209 220 214
-0.2333378945 -0.3000345972 -0.0951947391 206 216 207
-0.2479006202 -0.2880188026 -0.0948260069 207 218 214
-0.2330106822 -0.2940392069 -0.0954099158 204 214 206
-0.2296794692 -0.2907265488 -0.0956944145 207 217 209
-0.2331462529 -0.2971435206 -0.0953002805 210 220 212
-0.2319893512 -0.2951662843 -0.0954263858 206 216 208
-0.2421481103 -0.2896527135 -0.0950744418 213 224 218
-0.2306207115 -0.2900037170 -0.0956688057 209 219 211
-0.2349146992 -0.2931661183 -0.0953386590 204 213 208
-0.2308736190 -0.2907445407 -0.0956310482 209 218 213
-0.2322427565 -0.2943480006 -0.0954400861 205 215 207
-0.2348632840 -0.2967430740 -0.0952232456 211 221 213
-0.2362918097 -0.2956832002 -0.0951831516 206 215 210
-0.2374801559 -0.2933398454 -0.0951980653 211 222 216
-0.2379575540 -0.3003622237 -0.0949410813 206 215 210
-0.2372071371 -0.2995466857 -0.0950074583 206 215 210
-0.2392310052 -0.2899271639 -0.0952187210 211 224 217
-0.2305403006 -0.2939069250 -0.0955441431 207 217 209
-0.2320853021 -0.2965447983 -0.0953758216 209 219 211
-0.2302948324 -0.2903742101 -0.0956737018 209 219 211
-0.2304110796 -0.2896613664 -0.0956911302 211 221 213
-0.2328601749 -0.2944654603 -0.0954037519 205 215 207
-0.2343356293 -0.2943817508 -0.0953289567 208 217 212
-0.2352204329 -0.3028864624 -0.0950016081 210 220 211
-0.2345446116 -0.3020672465 -0.0950641853 210 220 212
-0.2367380491 -0.2970246885 -0.0951153965 207 216 211
-0.2306229519 -0.2892526751 -0.0956934884 212 222 214
-0.2409010918 -0.2964033693 -0.0949170769 211 220 215
-0.2414680679 -0.2896878784 -0.0951090281 211 222 216
-0.2335128478 -0.2963220882 -0.0953081347 211 221 213
-0.2382801112 -0.2987808246 -0.0949763457 209 218 213
-0.2277622584 -0.2897357769 -0.0958279122 208 218 210
-0.2325419045 -0.2889965469 -0.0956010736 209 218 213
-0.2360254080 -0.2942696228 -0.0952438337 204 213 208
-0.2368262530 -0.2948980308 -0.0951809852 204 213 208
-0.2341392829 -0.3005835732 -0.0951344850 205 215 207
-0.2381164028 -0.2925583391 -0.0951904265 211 222 216
-0.2359152833 -0.2941950243 -0.0952520859 204 213 208
-0.2391461250 -0.2917422208 -0.0951632471 212 223 217
-0.2380541304 -0.2997633389 -0.0949557806 207 216 211
-0.2448091383 -0.2904628039 -0.0949078107 216 227 221
-0.2380007855 -0.2898968411 -0.0952843906 210 223 216
-0.2329052351 -0.2991594294 -0.0952463818 209 219 210
-0.2486730128 -0.2759963376 -0.0965546065 196 207 199
-0.2482729315 -0.2756213407 -0.0966997732 195 207 197
-0.2457423635 -0.2783771552 -0.0958411678 204 214 205
-0.2447748156 -0.2788882452 -0.0957008941 207 214 206
-0.2483275476 -0.2781995741 -0.0958043119 207 217 209
-0.2472102876 -0.2804810845 -0.0954322444 210 217 210
-0.2482756804 -0.2838524732 -0.0950468702 210 221 213
-0.2488155393 -0.2827311202 -0.0951710518 209 220 212
-0.2462183217 -0.2798617364 -0.0955065996 208 215 208
-0.2488839242 -0.2791914072 -0.0955703609 209 219 211
-0.2468414438 -0.2830714785 -0.0951414514 210 220 212
-0.2448666540 -0.2804884542 -0.0954418884 207 217 209
-0.2467331861 -0.2803608670 -0.0954479489 209 216 209
-0.2423199676 -0.2796413850 -0.0955489017 204 211 204
-0.2492084677 -0.2718982138 -0.0994192183 166 168 154
-0.2528576927 -0.2720642152 -0.1024326446 159 160 144
-0.2532149762 -0.2714545675 -0.1031431046 158 159 141
-0.2529917611 -0.2714817977 -0.1029339671 158 159 141
-0.2498354957 -0.2736779278 -0.0987746919 183 191 178
-0.2487950326 -0.2713181725 -0.0994503203 170 172 158
-0.2521600667 -0.2776883422 -0.0966903842 209 220 212
-0.2516661146 -0.2779797862 -0.0964615812 210 221 213
-0.2506829280 -0.2777039271 -0.0963364318 206 217 209
-0.2505605778 -0.2761791216 -0.0968959547 206 217 209
-0.2503471119 -0.2855359701 -0.0949163285 214 225 219
-0.2506739054 -0.2853249499 -0.0950359733 215 226 220
-0.2511004436 -0.2847986929 -0.0952296601 213 224 218
-0.2501272059 -0.2787339254 -0.0958746409 211 221 213
-0.2520563109 -0.2802890817 -0.0961619167 210 219 214
-0.2498360687 -0.2802487145 -0.0955695633 210 220 212
-0.2555761899 -0.2777569698 -0.0974893849 211 220 215
-0.2523125986 -0.2804996197 -0.0961994942 212 221 216
-0.2522517556 -0.2728609555 -0.1012552374 163 165 152
-0.2522702275 -0.2753820435 -0.0983409856 197 207 198
-0.2535988910 -0.2735242665 -0.1012136184 165 169 155
-0.2544818921 -0.2731266483 -0.1021518414 161 163 150
-0.2549112603 -0.2742000921 -0.1011387019 178 186 173
-0.2534366187 -0.2752279155 -0.0991498777 191 203 193
-0.2537497409 -0.2739257735 -0.1008294005 174 180 168
-0.2523293153 -0.2741295381 -0.0998256979 178 186 173
-0.2543860104 -0.2745979877 -0.1003934246 185 196 182
-0.2534270825 -0.2734563312 -0.1011996012 166 169 158
-0.2013248160 -0.3066663116 -0.1904848275 56 41 18
-0.2051611881 -0.3072911566 -0.1851279597 77 61 36
-0.2036846497 -0.3056288455 -0.1867698266 36 21 0
-0.2018309656 -0.3049315255 -0.1892414276 54 39 16
-0.2017380254 -0.3055464428 -0.1895572648 57 45 21
-0.2025752744 -0.3067910443 -0.1887154562 46 30 7
-0.2033359541 -0.3066472946 -0.1875742530 39 21 0
-0.2012759631 -0.3050986534 -0.1900924473 61 49 25
-0.2014283994 -0.3055075851 -0.1899930244 57 45 21
-0.2041668115 -0.3117131383 -0.1902391538 44 26 2
-0.2043321658 -0.3091854783 -0.1875772485 41 25 2
-0.2037008869 -0.3111298740 -0.1902093600 43 25 1
-0.2045296083 -0.3086596635 -0.1868344678 36 20 0
-0.2046090644 -0.3122570868 -0.1902579715 45 28 2
-0.2052764123 -0.3118928922 -0.1891283121 46 28 4
-0.2047457214 -0.3106515376 -0.1885304834 45 27 3
-0.2027785984 -0.3090734090 -0.1892689855 45 27 5
-0.2066356350 -0.3134173617 -0.1890421911 44 26 2
-0.2130798747 -0.3172408819 -0.1853084202 75 61 34
-0.2138776269 -0.3183117758 -0.1859831972 75 61 34
-0.2146388429 -0.3212061625 -0.1896573883 52 36 10
-0.2130237453 -0.3199043273 -0.1896931154 40 24 0
-0.2093284706 -0.3170692931 -0.1900070982 40 22 0
-0.2113012845 -0.3182861676 -0.1893593572 40 24 0
-0.2138672595 -0.3181267757 -0.1856975655 74 60 33
-0.2103330315 -0.3175967624 -0.1895281159 37 19 0
-0.2135594158 -0.3183241803 -0.1864253888 77 63 36
-0.2105864705 -0.3166163189 -0.1876052750 68 52 27
-0.2121952279 -0.3183197272 -0.1882278217 56 40 15
-0.2131932319 -0.3205721672 -0.1905490473 43 23 0
-0.2123239420 -0.3180551872 -0.1876289748 80 64 39
-0.2139569856 -0.3182514792 -0.1857803479 74 60 33
-0.2023932662 -0.3029824745 -0.1873740600 49 34 13
-0.2033623308 -0.3033179429 -0.1857371218 33 18 0
-0.2036347882 -0.3036747346 -0.1854742597 43 27 4
-0.2035785900 -0.3020336463 -0.1843497729 57 41 18
-0.2030488692 -0.3040273531 -0.1868816716 38 23 2
-0.2049664513 -0.3065678029 -0.1850536655 73 56 36
-0.2021736043 -0.3032686132 -0.1880174600 50 35 14
-0.2023955130 -0.3038527226 -0.1880240786 50 35 14
-0.2080813846 -0.3122130534 -0.1860795939 78 62 39
-0.2066557723 -0.3124909650 -0.1881056929 43 25 1
-0.2078284287 -0.3142866895 -0.1884432034 39 21 0
-0.2060072319 -0.3091120496 -0.1855570753 79 65 39
-0.2119893932 -0.3149922127 -0.1840311070 86 70 44
-0.2080999866 -0.3132110650 -0.1870447899 66 50 25
-0.2098254539 -0.3150104561 -0.1867069580 81 63 39
-0.2088948833 -0.3121603933 -0.1850283057 77 61 38
-0.2071273530 -0.3099685142 -0.1850292322 80 66 40
-0.2114451989 -0.3153168804 -0.1850209213 74 58 33
-0.2086021199 -0.3113938512 -0.1846289973 72 58 31
-0.2119260541 -0.3158286415 -0.1849369756 76 62 35
-0.2105873701 -0.3136180692 -0.1843926789 76 60 35
-0.2070025029 -0.3117351969 -0.1869316125 53 37 12
-0.2005003748 -0.2970695486 -0.1895506068 88 73 50
-0.2010746723 -0.2975255477 -0.1884164131 84 69 46
-0.2013902788 -0.3002527382 -0.1880115142 71 56 35
-0.2003909043 -0.2949346131 -0.1895861974 100 86 60
-0.2000433791 -0.2960137514 -0.1903920311 99 84 61
-0.2006878851 -0.2997655973 -0.1894049112 75 63 41
-0.2001285435 -0.2981950519 -0.1904102340 87 72 49
-0.2019402624 -0.3000826745 -0.1868718317 57 42 21
-0.2024850378 -0.3011971687 -0.1858560789 45 30 9
-0.2010125961 -0.2967044782 -0.1884709491 85 70 47
-0.2161533389 -0.3200176803 -0.1859273881 74 60 33
-0.2164725256 -0.3203212399 -0.1860320333 75 61 34
-0.2160825653 -0.3192142575 -0.1847578151 81 65 39
-0.2172451804 -0.3201254142 -0.1848360192 81 65 39
-0.2190431403 -0.3218909796 -0.1855121167 82 68 41
-0.2158732354 -0.3219543364 -0.1892664174 60 44 18
-0.2181798464 -0.3211556584 -0.1853625594 81 67 40
-0.2154954915 -0.3196449168 -0.1861055240 74 60 33
-0.2183986005 -0.3216642612 -0.1859023457 80 66 39
-0.2171264469 -0.3197971824 -0.1844617824 81 65 39
-0.2158656524 -0.3222254496 -0.1896973741 49 33 7
-0.2173436083 -0.3227096083 -0.1887469420 75 59 33
-0.2052222735 -0.3056483976 -0.1825463248 84 68 45
-0.2041547106 -0.3019372670 -0.1813820362 80 64 41
-0.2049356019 -0.3049481857 -0.1831017735 83 67 44
-0.2050345802 -0.3048898856 -0.1820309860 82 66 41
-0.2045726896 -0.3016391005 -0.1767079303 93 77 51
-0.2050379519 -0.3040538829 -0.1795513067 84 68 43
-0.2054836717 -0.3067116320 -0.1832841383 79 63 38
-0.2048947054 -0.3027062926 -0.1769061473 89 73 47
-0.2046573576 -0.3039111927 -0.1825940137 76 60 35
-0.2047436590 -0.3024167816 -0.1774314921 87 71 46
-0.2072138809 -0.3081902587 -0.1777411937 90 73 47
-0.2085286681 -0.3102794854 -0.1810623741 85 69 43
-0.2116384718 -0.3142489816 -0.1835060341 85 71 44
-0.2089667348 -0.3106726588 -0.1804824483 87 71 45
-0.2126237662 -0.3153252622 -0.1832703817 86 72 45
-0.2071851120 -0.3082005906 -0.1779805536 90 73 47
-0.2070984447 -0.3087376352 -0.1815182698 84 68 42
-0.2100034091 -0.3122493522 -0.1827080227 88 72 46
-0.2088169638 -0.3107713194 -0.1819783775 86 70 44
-0.2075220184 -0.3088813741 -0.1796412565 87 71 45
-0.2094673130 -0.3112371253 -0.1804610615 87 72 43
-0.2083892645 -0.3097199409 -0.1788283067 89 72 44
-0.2079695130 -0.3101303781 -0.1837664616 80 64 38
-0.2076618295 -0.3094162202 -0.1817352435 84 68 42
-0.2081769694 -0.3104187384 -0.1840606094 78 62 36
-0.2076358400 -0.3084257334 -0.1763851126 89 72 46
-0.2007054076 -0.2940634579 -0.1890018519 97 83 57
-0.2018944904 -0.2974387660 -0.1867573331 72 57 36
-0.2022391739 -0.2934140587 -0.1861774257 103 89 63
-0.2033797528 -0.2967456768 -0.1840231346 48 34 8
-0.2031517726 -0.2975581738 -0.1844328393 56 42 16
-0.2028389548 -0.2939193446 -0.1850621992 106 92 66
-0.2030315232 -0.2973532011 -0.1846578952 56 44 20
-0.2026566212 -0.2944262990 -0.1853918915 105 91 65
-0.2025962058 -0.2976689361 -0.1854576733 62 47 26
-0.2241456209 -0.3273686400 -0.1893713114 73 59 33
-0.2212043055 -0.3247046626 -0.1878620030 75 61 35
-0.2217077020 -0.3244540102 -0.1868137877 74 60 34
-0.2230949988 -0.3270910444 -0.1900784052 56 42 16
-0.2187672137 -0.3243331396 -0.1900059236 61 47 21
-0.2183556813 -0.3244069013 -0.1906203459 54 38 13
-0.2215677576 -0.3232952916 -0.1848337832 80 66 40
-0.2214766778 -0.3250246073 -0.1881372217 76 62 36
-0.2238089832 -0.3258132676 -0.1868863395 76 62 36
-0.2223825459 -0.3234449369 -0.1841640410 80 66 40
-0.2191900135 -0.3239848176 -0.1888707295 74 60 34
-0.2226605717 -0.3239084816 -0.1846982205 81 67 41
-0.2235545552 -0.3266663807 -0.1887593533 75 61 35
-0.2208178687 -0.3252668814 -0.1893504703 74 60 34
-0.2151399598 -0.3176684848 -0.1831738433 84 68 42
-0.2191888476 -0.3202841381 -0.1798806331 86 72 45
-0.2199485834 -0.3210906878 -0.1819802597 85 71 44
-0.2218426515 -0.3221988626 -0.1794462431 88 73 44
-0.2176774408 -0.3192092044 -0.1802618565 87 71 45
-0.2212518787 -0.3220726159 -0.1821249549 87 71 45
-0.2206048764 -0.3212698992 -0.1793398108 85 71 44
-0.2180239873 -0.3197497330 -0.1827053577 86 70 44
-0.2222493652 -0.3223772279 -0.1783892060 88 73 44
-0.2181209955 -0.3195561467 -0.1804209198 87 71 45
-0.2187548240 -0.3201574822 -0.1815567820 86 72 45
-0.2217928012 -0.3220345034 -0.1783493586 87 72 43
-0.2199290440 -0.3209152652 -0.1805949689 86 72 45
-0.2073148622 -0.3080895019 -0.1767657818 89 72 46
-0.2067672135 -0.3063435518 -0.1755513925 87 70 44
-0.2065710301 -0.3061359805 -0.1761008920 90 70 45
-0.2060796490 -0.3058076069 -0.1779284746 90 73 47
-0.2066345665 -0.3071361743 -0.1781210233 88 71 45
-0.2060755689 -0.3062841322 -0.1790727763 87 70 44
-0.2059519769 -0.3051023048 -0.1769426307 87 67 42
-0.2062014611 -0.3057508398 -0.1771498904 88 68 43
-0.2068895508 -0.3065858768 -0.1754746945 87 70 44
-0.2054499319 -0.3056952108 -0.1809972176 83 67 42
-0.2054616261 -0.3030218124 -0.1746367336 92 76 50
-0.2040265835 -0.2973296774 -0.1799830748 91 75 49
-0.2038516236 -0.2991643328 -0.1815402208 89 75 49
-0.2042056515 -0.3000386718 -0.1783477872 88 72 46
-0.2041953083 -0.2989048475 -0.1784511028 92 78 51
-0.2038047431 -0.3007527735 -0.1819475150 79 65 39
-0.2043169866 -0.2988948043 -0.1773566886 92 76 50
-0.2042113811 -0.2987280400 -0.1783081292 90 74 48
-0.2039701613 -0.2996007162 -0.1804700088 89 75 49
-0.2036354171 -0.2987737594 -0.1834885549 44 30 4
-0.2041666893 -0.2975334512 -0.1787209647 95 79 53
-0.2044664585 -0.2998464568 -0.1760035503 92 76 50
-0.2118703560 -0.3138447184 -0.1788992626 85 69 43
-0.2096353470 -0.3109445026 -0.1775742332 88 71 43
-0.2122974266 -0.3142361008 -0.1775429451 86 70 44
-0.2091497911 -0.3102277911 -0.1764298055 89 72 44
-0.2138010342 -0.3161111620 -0.1776823331 85 69 43
-0.2096911478 -0.3109862474 -0.1773041538 88 71 43
-0.2124163394 -0.3144197385 -0.1779034442 85 69 43
-0.2089513447 -0.3099622017 -0.1762322798 89 72 44
-0.2114640461 -0.3131142325 -0.1766489790 90 73 47
-0.2133860533 -0.3154193274 -0.1759202788 89 73 47
-0.2083017706 -0.3090810453 -0.1754690247 90 73 45
-0.2131219638 -0.3156830091 -0.1817586473 86 70 44
-0.2289232285 -0.3279278037 -0.1879586315 80 68 42
-0.2293178559 -0.3270735194 -0.1866181634 83 69 43
-0.2260754335 -0.3274444437 -0.1882741576 77 65 39
-0.2261144582 -0.3271755008 -0.1878819546 77 65 39
-0.2262998170 -0.3262427655 -0.1865042438 81 67 41
-0.2284244094 -0.3286855340 -0.1891996293 79 65 39
-0.2300632246 -0.3273550645 -0.1867537984 83 69 43
-0.2240219190 -0.3248597685 -0.1853541723 82 68 42
-0.2258913519 -0.3282291710 -0.1894430903 72 58 32
-0.2274408882 -0.3279789941 -0.1885490677 81 69 43
-0.2315352471 -0.3282467605 -0.1874941485 80 68 42
-0.2265199330 -0.3244710024 -0.1799049800 89 73 48
-0.2245900479 -0.3238923957 -0.1821586563 87 71 45
-0.2254320639 -0.3242363528 -0.1821271116 87 71 45
-0.2241062417 -0.3233809347 -0.1789127772 89 73 47
-0.2243128136 -0.3237685929 -0.1820592680 87 71 45
-0.2299227273 -0.3262020445 -0.1833243652 85 71 44
-0.2245835231 -0.3235252961 -0.1783685827 90 74 48
-0.2284614229 -0.3253496727 -0.1807223917 86 72 45
-0.2304388621 -0.3263825870 -0.1829899476 85 74 46
-0.2240278624 -0.3234705506 -0.1801807665 87 71 45
-0.2262024458 -0.3245742520 -0.1823395861 87 71 46
-0.2249573935 -0.3237792489 -0.1794074204 90 74 48
-0.2282072816 -0.3252368191 -0.1806379041 87 73 46
-0.2218390745 -0.3218102774 -0.1760822317 88 74 45
-0.2165576657 -0.3181598212 -0.1772454323 87 71 45
-0.2196527101 -0.3202160922 -0.1755475824 88 74 45
-0.2144290342 -0.3170367903 -0.1819784279 85 71 44
-0.2145383815 -0.3166029537 -0.1757168888 89 73 47
-0.2149689875 -0.3173634824 -0.1812899229 86 70 44
-0.2171915548 -0.3186209874 -0.1773877899 87 71 45
-0.2146371122 -0.3169392699 -0.1789775337 85 69 43
-0.2162552061 -0.3178141463 -0.1756392538 88 73 44
-0.2172541623 -0.3185766887 -0.1763017364 88 73 44
-0.2215285436 -0.3215568766 -0.1756759736 87 73 44
-0.2200073266 -0.3206268634 -0.1774979203 84 70 43
-0.2156922476 -0.3177416352 -0.1796397948 84 68 42
-0.2288223692 -0.3299159509 -0.1906210323 41 25 0
-0.2323511364 -0.3292524193 -0.1885307861 82 70 46
-0.2312399954 -0.3302769044 -0.1902003192 41 25 0
-0.2317666985 -0.3289782025 -0.1884006431 84 72 46
-0.2048350134 -0.3010104633 -0.1692550023 94 79 50
-0.2064665881 -0.3053886837 -0.1745495345 91 74 48
-0.2061904507 -0.3047232634 -0.1744267203 90 73 47
-0.2065081892 -0.3051049885 -0.1706396617 93 76 48
-0.2067309133 -0.3058743144 -0.1731187853 93 76 50
-0.2053893961 -0.3024302007 -0.1703591556 94 79 48
-0.2052768834 -0.3020693787 -0.1693913845 93 78 47
-0.2060903132 -0.3037395679 -0.1667863090 96 81 50
-0.2062488578 -0.3042583442 -0.1682557385 95 80 49
-0.2051534202 -0.3017601011 -0.1692161196 93 78 49
-0.2048931866 -0.3013919637 -0.1717499567 93 78 49
-0.2049721819 -0.3016796690 -0.1727811097 94 79 50
-0.2054702051 -0.3029532032 -0.1737538773 93 77 51
-0.2051454324 -0.3017472062 -0.1692775743 93 78 49
-0.2054681460 -0.3025436867 -0.1696136988 96 81 50
-0.2053984325 -0.3019442186 -0.1651679753 98 84 55
-0.2040030424 -0.2960857912 -0.1798570044 83 68 39
-0.2041974269 -0.2975997857 -0.1772082463 103 88 59
-0.2039797296 -0.2959270092 -0.1789440827 95 80 51
-0.2041033715 -0.2968992595 -0.1767601191 100 85 56
-0.2117626179 -0.3133288238 -0.1699457140 89 73 47
-0.2095060228 -0.3105511332 -0.1726174441 91 74 48
-0.2103622358 -0.3116096451 -0.1723842674 91 74 48
-0.2126990298 -0.3144922023 -0.1706651114 89 73 47
-0.2114106224 -0.3128819751 -0.1680503965 93 76 50
-0.2125574250 -0.3143371801 -0.1741180894 92 75 49
-0.2100290084 -0.3112050476 -0.1737294017 90 73 45
-0.2129553953 -0.3148335917 -0.1747614630 90 73 47
-0.2139723074 -0.3160331622 -0.1646689980 91 75 49
-0.2137082884 -0.3156969188 -0.1630636112 90 74 48
-0.2116269271 -0.3131785850 -0.1729663842 90 73 47
-0.2124352977 -0.3141286694 -0.1643495990 90 74 48
-0.2134234279 -0.3153118356 -0.1575325374 89 73 47
-0.2132111383 -0.3150826298 -0.1632541396 91 75 49
-0.2114220703 -0.3129374207 -0.1750828182 89 72 46
-0.2104141770 -0.3116293450 -0.1647858300 92 76 50
-0.2115526352 -0.3130989468 -0.1750664244 89 72 46
-0.2132335409 -0.3150562616 -0.1540365366 93 79 50
-0.2112922383 -0.3127766006 -0.1750649424 88 71 45
-0.2140289407 -0.3161057628 -0.1650942551 91 75 49
-0.2134548330 -0.3153272013 -0.1535269157 93 79 50
-0.2101354050 -0.3113146914 -0.1699705305 92 75 49
-0.2108907519 -0.3122784655 -0.1748694739 89 72 44
-0.2109972702 -0.3123828490 -0.1701887080 91 74 48
-0.2113113230 -0.3127179260 -0.1610426884 92 76 50
-0.2130155060 -0.3147920022 -0.1549974157 92 78 49
-0.2138294210 -0.3158046253 -0.1558666972 91 77 48
-0.2135532741 -0.3155194661 -0.1655230580 91 75 49
-0.2134505716 -0.3153453718 -0.1575216118 89 73 47
-0.2094017417 -0.3104007777 -0.1689935964 91 74 48
-0.2124002081 -0.3141379220 -0.1733268435 92 75 49
-0.2106802268 -0.3119824049 -0.1688281003 93 76 50
-0.2082512800 -0.3090046408 -0.1737617534 90 73 47
-0.2108510609 -0.3122162961 -0.1726482076 90 73 45
-0.2109843658 -0.3123463893 -0.1666983033 93 76 50
-0.2133927234 -0.3152996665 -0.1619350379 91 75 49
-0.2117705423 -0.3133114213 -0.1653093084 92 76 50
-0.2102839879 -0.3114689471 -0.1649151955 92 76 50
-0.2137038589 -0.3156218414 -0.1512060333 93 79 50
-0.2319401936 -0.3272965362 -0.1842501440 86 75 47
-0.2270236825 -0.3252254015 -0.1841123008 85 69 44
-0.2257115809 -0.3245197502 -0.1836078159 84 68 42
-0.2276943045 -0.3254457587 -0.1839410138 84 70 43
-0.2271671430 -0.3256834062 -0.1853323180 83 67 42
-0.2308509050 -0.3269079809 -0.1844346808 84 73 45
-0.2310896938 -0.3272430448 -0.1851585223 83 72 44
-0.2288500912 -0.3252143711 -0.1780753303 89 75 48
-0.2267013049 -0.3243429173 -0.1778988152 90 74 49
-0.2233984019 -0.3227310102 -0.1752345269 86 72 43
-0.2311527459 -0.3264414009 -0.1808400006 88 77 49
-0.2239021407 -0.3229711180 -0.1755905261 86 72 45
-0.2277992627 -0.3247759779 -0.1778816292 87 73 46
-0.2303937297 -0.3259880473 -0.1794991787 88 74 47
-0.2275332727 -0.3244537852 -0.1759770001 89 75 49
-0.2286314803 -0.3248529241 -0.1756609451 90 76 49
-0.2320892440 -0.3262425488 -0.1758334793 90 79 51
-0.2261658318 -0.3239271525 -0.1761101346 88 74 47
-0.2278303011 -0.3248766530 -0.1786580209 88 74 47
-0.2165313901 -0.3179809111 -0.1747947951 88 73 44
-0.2209500131 -0.3210707116 -0.1718599324 88 74 45
-0.2219517526 -0.3217823628 -0.1721660123 90 76 47
-0.2187975370 -0.3195420717 -0.1712468067 90 75 46
-0.2225155153 -0.3220888724 -0.1641614093 90 76 49
-0.2204636562 -0.3206057423 -0.1613198509 91 77 50
-0.2226616527 -0.3221480572 -0.1603233329 91 77 50
-0.2202845225 -0.3206223586 -0.1737810798 88 74 45
-0.2196302430 -0.3200822318 -0.1670292661 89 75 46
-0.2175968383 -0.3187277704 -0.1742459396 90 75 46
-0.2226318037 -0.3222763214 -0.1733167752 89 75 46
-0.2204763305 -0.3206920585 -0.1680492254 89 75 46
-0.2214325652 -0.3214163491 -0.1722531298 88 74 45
-0.2199145270 -0.3203244576 -0.1706189272 88 74 45
-0.2164154932 -0.3178791300 -0.1730677301 88 73 44
-0.2222979226 -0.3218591267 -0.1575562519 91 77 50
-0.2185048596 -0.3193248091 -0.1703448687 90 75 46
-0.2221955317 -0.3219038488 -0.1677431772 89 75 48
-0.2211034401 -0.3211057513 -0.1654731637 90 76 47
-0.2218985869 -0.3217027924 -0.1685134721 90 76 49
-0.2222576673 -0.3218430811 -0.1586359041 91 77 50
-0.2193837365 -0.3199729830 -0.1726843505 90 75 46
-0.2204536657 -0.3206173447 -0.1629435199 91 77 50
-0.2228606142 -0.3223765276 -0.1679632602 89 75 49
-0.2216397131 -0.3214945383 -0.1663164536 90 76 47
-0.2191605039 -0.3197857939 -0.1701280823 89 74 45
-0.2159694101 -0.3175445104 -0.1713903516 90 73 47
-0.2225836033 -0.3221773887 -0.1676745331 89 75 49
-0.2183870892 -0.3192200718 -0.1684758558 90 75 46
-0.2185796293 -0.3193443287 -0.1674449824 90 75 46
-0.2218849491 -0.3216688700 -0.1664011576 90 76 49
-0.2171961569 -0.3184398298 -0.1738372851 90 75 46
-0.2377648877 -0.3309179224 -0.1904841486 41 25 0
-0.2349426794 -0.3302200876 -0.1896198373 56 41 18
-0.2332595076 -0.3294903973 -0.1887323608 80 68 44
-0.2349651229 -0.3305583946 -0.1900215609 43 27 2
-0.2345034511 -0.3310004093 -0.1905401242 50 34 9
-0.2063974429 -0.3045179108 -0.1646913298 95 81 52
-0.2068170044 -0.3056237824 -0.1606601937 94 80 51
-0.2062071492 -0.3037956657 -0.1555298719 97 83 54
-0.2077825093 -0.3082207099 -0.1539767845 96 82 53
-0.2073408085 -0.3073441775 -0.1725481422 92 75 49
-0.2074666237 -0.3076067969 -0.1679029359 93 77 51
-0.2060269074 -0.3033364915 -0.1580536342 94 80 51
-0.2058174009 -0.3028327774 -0.1624818754 96 82 53
-0.2055542038 -0.3020061181 -0.1583905950 94 80 51
-0.2056869561 -0.3024747018 -0.1630254265 97 83 54
-0.2066634026 -0.3053601545 -0.1691695658 93 78 47
-0.2070929758 -0.3064437034 -0.1626163502 93 79 50
-0.2076808480 -0.3081366879 -0.1641137293 91 76 47
-0.2075751400 -0.3075835241 -0.1514568878 96 82 53
-0.2069662061 -0.3059664271 -0.1567058256 95 81 52
-0.2071539872 -0.3066944316 -0.1665080728 94 79 48
-0.2075599371 -0.3077502994 -0.1619041916 92 78 49
-0.2076310772 -0.3081113508 -0.1698632951 92 75 49
-0.2075389068 -0.3077668133 -0.1656892143 92 77 48
-0.2067102427 -0.3053785873 -0.1634890297 94 80 51
-0.2073831732 -0.3071545532 -0.1571365624 95 81 52
-0.2072165581 -0.3067725508 -0.1615839434 94 80 51
-0.2074051019 -0.3072808892 -0.1603390892 93 79 50
-0.2073774599 -0.3070324441 -0.1518602114 96 82 53
-0.2073625989 -0.3069520171 -0.1499483562 97 83 54
-0.2074143791 -0.3075101883 -0.1704515744 91 74 48
-0.2063940264 -0.3044050455 -0.1595517821 96 82 53
-0.2074340276 -0.3073710152 -0.1607526209 94 80 51
-0.2070973137 -0.3066396952 -0.1717659004 91 74 48
-0.2075845150 -0.3078276382 -0.1622933926 92 78 49
-0.2072983137 -0.3069137547 -0.1570989119 95 81 52
-0.2070234359 -0.3060694065 -0.1537721889 97 83 54
-0.2076223747 -0.3079747884 -0.1642882471 91 76 47
-0.2049451624 -0.2990676673 -0.1673455019 95 81 52
-0.2050645180 -0.2986601435 -0.1640583466 99 85 56
-0.2049504820 -0.2983565250 -0.1679719364 95 81 52
-0.2051726883 -0.2939012469 -0.1659753240 97 81 55
-0.2050894199 -0.2984825323 -0.1634757970 96 82 53
-0.2049031044 -0.2988843048 -0.1688685057 93 79 50
-0.2049833745 -0.2999517957 -0.1651614320 95 81 52
-0.2051371153 -0.2976674680 -0.1628896993 98 82 56
-0.2051606501 -0.2956580327 -0.1643932099 98 82 56
-0.2050342845 -0.2977249755 -0.1660492185 98 82 56
-0.2051265748 -0.2954611634 -0.1656810278 99 83 57
-0.2050614549 -0.3003508072 -0.1622686202 98 84 55
-0.2048849503 -0.3007630751 -0.1673420607 94 80 51
-0.2050369152 -0.2958251503 -0.1680857983 99 83 57
-0.2051687687 -0.2945589917 -0.1653645561 98 82 56
-0.2049356528 -0.2999348669 -0.1666763514 93 79 50
-0.2050482231 -0.2983404856 -0.1649257199 100 86 57
-0.2049644887 -0.2954396668 -0.1694977135 98 82 56
-0.2045924528 -0.2970154956 -0.1726498243 95 81 52
-0.2046666812 -0.2997533517 -0.1735660708 95 80 51
-0.2047158447 -0.2968134131 -0.1717666554 95 81 52
-0.2049359908 -0.2948549996 -0.1693820809 99 83 57
-0.2049131646 -0.2941589160 -0.1691741535 99 83 57
-0.2186591916 -0.3193012238 -0.1539045897 93 79 52
-0.2163653772 -0.3177542442 -0.1613857013 90 74 48
-0.2149218183 -0.3167237054 -0.1573520446 92 76 50
-0.2180110020 -0.3188669174 -0.1564545175 92 78 51
-0.2168587091 -0.3180923977 -0.1606118603 90 74 48
-0.2170418789 -0.3181998574 -0.1575487807 91 75 49
-0.2183104019 -0.3190496347 -0.1525322688 93 79 52
-0.2149068805 -0.3166895986 -0.1537139386 92 78 49
-0.2197097489 -0.3200796323 -0.1612013152 90 74 48
-0.2150731183 -0.3168216110 -0.1562245146 89 75 46
-0.2180596172 -0.3189309013 -0.1610818956 92 76 50
-0.2166834326 -0.3179954492 -0.1644450459 91 75 49
-0.2169973419 -0.3182274145 -0.1665294151 91 76 47
-0.2174701735 -0.3185550289 -0.1663266184 90 75 46
-0.2153887544 -0.3171372594 -0.1709623557 90 73 47
-0.2144820205 -0.3164552742 -0.1631086266 92 76 50
-0.2160118889 -0.3175362091 -0.1656623259 89 73 47
-0.2165352413 -0.3178445276 -0.1571076499 90 74 48
-0.2168060918 -0.3181111724 -0.1691075232 90 75 46
-0.2165871885 -0.3178538721 -0.1529972338 92 78 49
-0.2160140771 -0.3175061421 -0.1608162448 91 75 49
-0.2190010345 -0.3195961451 -0.1626658414 92 76 50
-0.2159265160 -0.3174662324 -0.1640384794 90 74 48
-0.2152867144 -0.3169830393 -0.1581935489 91 75 49
-0.2186295323 -0.3193505532 -0.1646374802 91 76 47
-0.2212233581 -0.3210896646 -0.1546131333 93 79 52
-0.2173815367 -0.3184920368 -0.1661226133 90 75 46
-0.2168318411 -0.3180814522 -0.1618001363 90 74 48
-0.2180688270 -0.3189235696 -0.1589742369 91 75 49
-0.2210479633 -0.3209922140 -0.1583819062 91 77 50
-0.2161048890 -0.3175480172 -0.1575485738 90 74 48
-0.2160549254 -0.3174808318 -0.1525739620 92 78 49
-0.2147256452 -0.3165967543 -0.1588126921 91 75 49
-0.2203888003 -0.3205119867 -0.1550582646 93 79 52
-0.2157312084 -0.3172719205 -0.1550729969 91 77 48
-0.2152726976 -0.3170540353 -0.1705809057 91 74 48
-0.2160201785 -0.3175730273 -0.1704258828 90 73 47
-0.2163895050 -0.3177271571 -0.1546553029 91 77 48
-0.2144449195 -0.3164475401 -0.1658816602 91 75 49
-0.2193498855 -0.3197786218 -0.1534291219 93 79 52
-0.2153271062 -0.3169836733 -0.1539800891 92 78 49
-0.2142940388 -0.3162928798 -0.1582577436 91 75 49
-0.2081423496 -0.3088475312 -0.1707532074 93 76 50
-0.2098421830 -0.3108185401 -0.1516620744 94 80 51
-0.2087112503 -0.3094944658 -0.1626885326 93 77 51
-0.2087484527 -0.3094345827 -0.1487059825 96 82 53
-0.2113395703 -0.3127151319 -0.1559547195 94 80 51
-0.2114560241 -0.3128762849 -0.1580862094 94 80 51
-0.2112999598 -0.3126572641 -0.1548276804 94 80 51
-0.2090052618 -0.3098073324 -0.1556932553 95 81 52
-0.2100301385 -0.3111335871 -0.1623372002 92 76 50
-0.2082016139 -0.3089227540 -0.1709439962 93 76 50
-0.2105022901 -0.3116335671 -0.1507808052 93 79 50
-0.2089953635 -0.3097535004 -0.1502275793 95 81 52
-0.2111243225 -0.3124449297 -0.1556577321 93 79 50
-0.2108895521 -0.3121766206 -0.1588098880 92 78 49
-0.2081723710 -0.3088147285 -0.1615133591 92 78 49
-0.2098120368 -0.3107935809 -0.1533168733 94 80 51
-0.2100150826 -0.3110229144 -0.1502326672 95 81 52
-0.2103600955 -0.3114639317 -0.1517515410 94 80 51
-0.2099992517 -0.3110199112 -0.1524320246 94 80 51
-0.2121988687 -0.3137645666 -0.1532891404 93 79 50
-0.2076917743 -0.3083107849 -0.1739320696 90 73 47
-0.2111835598 -0.3124804111 -0.1506201829 93 79 50
-0.2089347323 -0.3097754438 -0.1630547417 94 78 52
-0.2120370306 -0.3135518149 -0.1518024598 93 79 50
-0.2086110705 -0.3093421068 -0.1590475497 93 79 50
-0.2079220260 -0.3085233799 -0.1641846982 91 75 49
-0.2088914591 -0.3096784387 -0.1573748141 93 79 50
-0.2080172323 -0.3085458736 -0.1515414874 95 81 52
-0.2124815298 -0.3141084285 -0.1522354345 92 78 49
-0.2100088839 -0.3110317928 -0.1524177011 94 80 51
-0.2112941844 -0.3126778369 -0.1584831363 92 78 49
-0.2104478440 -0.3116670438 -0.1641127664 93 77 51
-0.2103364914 -0.3114272108 -0.1507853666 94 80 51
-0.2080013683 -0.3085842056 -0.1591888745 97 83 54
-0.2085257670 -0.3092421673 -0.1598703068 92 78 49
-0.2094844185 -0.3103616526 -0.1501436612 96 82 53
-0.2104799522 -0.3116336971 -0.1544592599 95 81 52
-0.2088669764 -0.3096018130 -0.1512983896 95 81 52
-0.2102265790 -0.3113654293 -0.1606659600 92 76 50
-0.2089336732 -0.3097549688 -0.1605323801 91 77 48
-0.2079875803 -0.3084912000 -0.1492027753 98 84 55
-0.2080579058 -0.3087099834 -0.1664831762 93 77 51
-0.2353570965 -0.3280410448 -0.1851539927 86 74 48
-0.2325940604 -0.3272415710 -0.1835415068 87 76 48
-0.2337362026 -0.3274009448 -0.1837093455 87 75 49
-0.2327461529 -0.3284516816 -0.1870291043 78 68 43
-0.2379635331 -0.3277620726 -0.1836638144 86 74 48
-0.2282965297 -0.3245915932 -0.1677912627 93 79 53
-0.2302692679 -0.3254614696 -0.1736353204 92 78 51
-0.2275574475 -0.3243670043 -0.1731929151 89 75 49
-0.2253889925 -0.3234860102 -0.1724026108 90 76 49
-0.2292968415 -0.3250704537 -0.1735850481 91 77 50
-0.2270358777 -0.3241564773 -0.1731058516 88 74 47
-0.2308264491 -0.3256010032 -0.1673316644 94 80 54
-0.2319893427 -0.3260000171 -0.1622523197 92 80 54
-0.2256992285 -0.3236484745 -0.1752448393 88 74 47
-0.2284309712 -0.3247032458 -0.1721137106 91 77 51
-0.2317625657 -0.3260096979 -0.1697987513 93 79 53
-0.2282378781 -0.3246136963 -0.1712115981 90 76 50
-0.2290623558 -0.3249217193 -0.1694931806 94 80 54
-0.2321489949 -0.3261117395 -0.1658217068 95 81 55
-0.2311878688 -0.3258130430 -0.1723491040 92 78 52
-0.2308044065 -0.3256408923 -0.1709835841 91 77 51
-0.2312244921 -0.3258441805 -0.1735806987 90 79 51
-0.2280061888 -0.3245564778 -0.1738929703 89 75 48
-0.2316757427 -0.3260034037 -0.1719386036 93 79 53
-0.2291474168 -0.3250295589 -0.1750152002 90 76 49
-0.2292544183 -0.3249940105 -0.1691331158 95 81 55
-0.2322157028 -0.3264749312 -0.1774777756 90 79 51
-0.2346169552 -0.3268875268 -0.1793169846 93 79 53
-0.2329354588 -0.3266263237 -0.1782613985 90 79 51
-0.2323864842 -0.3270363211 -0.1820678659 88 77 49
-0.2328015626 -0.3264598671 -0.1769565325 90 79 51
-0.2341363210 -0.3270875671 -0.1813176442 90 76 50
-0.2385975524 -0.3276037157 -0.1826359395 85 73 47
-0.2354551988 -0.3271772184 -0.1811798630 90 76 50
-0.2260281661 -0.3236644373 -0.1641849537 92 78 51
-0.2231559765 -0.3225326945 -0.1641553413 90 76 49
-0.2283693311 -0.3245537636 -0.1602708412 93 79 52
-0.2238480773 -0.3228372608 -0.1679440362 90 76 50
-0.2238895903 -0.3228291643 -0.1650414318 91 77 50
-0.2238005328 -0.3228366796 -0.1700985569 91 77 51
-0.2238829292 -0.3228571254 -0.1686723224 90 76 50
-0.2270638890 -0.3240857073 -0.1657577954 93 79 52
-0.2269111583 -0.3239821841 -0.1606109245 91 77 50
-0.2271141065 -0.3241222747 -0.1677503231 92 78 52
-0.2239001812 -0.3228861422 -0.1713101884 91 77 48
-0.2247152098 -0.3231914585 -0.1694389481 90 76 50
-0.2235503687 -0.3226361858 -0.1579966191 91 77 50
-0.2237667482 -0.3227842483 -0.1654542575 91 77 51
-0.2281003010 -0.3244732961 -0.1632999896 93 79 52
-0.2255004208 -0.3235101017 -0.1705442882 90 76 50
-0.2294903082 -0.3250084274 -0.1618209010 91 79 53
-0.2294350753 -0.3250076994 -0.1643175526 92 80 54
-0.2262590510 -0.3237846515 -0.1676582216 91 77 51
-0.2282410272 -0.3244909819 -0.1588181795 92 78 51
-0.2254451613 -0.3234196238 -0.1623876357 91 77 50
-0.2242328845 -0.3230138888 -0.1709159130 90 76 49
-0.2264099844 -0.3238263236 -0.1655465679 93 79 52
-0.2245811143 -0.3231234839 -0.1676406786 90 76 50
-0.2236200770 -0.3227422534 -0.1673282530 90 76 50
-0.2275104849 -0.3242114242 -0.1597961479 93 79 52
-0.2244906009 -0.3230280497 -0.1605443791 92 78 51
-0.2235705722 -0.3227542710 -0.1710701014 90 76 47
-0.2252993762 -0.3233696905 -0.1632778020 91 77 50
-0.2382072722 -0.3289474676 -0.1865095082 88 78 51
-0.2394840946 -0.3287956623 -0.1857230201 93 83 56
-0.2360508697 -0.3288042474 -0.1868819069 82 72 45
-0.2381950845 -0.3292552084 -0.1872496965 84 74 47
-0.2364465923 -0.3294354974 -0.1882607117 83 71 45
-0.2392209467 -0.3287810555 -0.1857753308 93 83 56
-0.2396614417 -0.3291237386 -0.1864490089 89 79 52
-0.2357156651 -0.3287328009 -0.1868221431 82 72 45
-0.2398100685 -0.3303716946 -0.1893849660 47 32 9
-0.2170909013 -0.3184083154 -0.1425469572 92 78 49
-0.2169134147 -0.3182595871 -0.1434277172 92 78 49
-0.2225999433 -0.3223165831 -0.1437060240 93 79 50
-0.2224960252 -0.3226166086 -0.1286437004 92 81 51
-0.2193913826 -0.3203099774 -0.1321801800 93 82 52
-0.2195471893 -0.3199204546 -0.1523363596 93 79 52
-0.2200522361 -0.3202893690 -0.1520152380 93 79 52
-0.2219528609 -0.3221330072 -0.1324838517 92 81 51
-0.2179658977 -0.3190444488 -0.1421118582 92 78 49
-0.2185480339 -0.3192294972 -0.1514069627 92 78 51
-0.2188466173 -0.3194878134 -0.1495988060 92 78 51
-0.2193599097 -0.3202209474 -0.1348578056 92 81 51
-0.2176558021 -0.3188225732 -0.1421224766 92 78 49
-0.2215373818 -0.3214045390 -0.1498501340 93 79 52
-0.2190004787 -0.3197201142 -0.1446754547 92 78 51
-0.2211618805 -0.3216782373 -0.1280367215 92 81 51
-0.2196298456 -0.3202280930 -0.1423334383 94 80 51
-0.2227732856 -0.3222045909 -0.1531980550 92 78 51
-0.2223149286 -0.3224031101 -0.1320271401 92 81 51
-0.2208500870 -0.3212262452 -0.1372589192 93 79 50
-0.2175909790 -0.3185691677 -0.1504558175 92 78 49
-0.2201300589 -0.3206147289 -0.1411601565 94 80 51
-0.2189605297 -0.3199009371 -0.1362498274 93 79 50
-0.2225878446 -0.3223898243 -0.1404106851 94 80 51
-0.2191048892 -0.3200257102 -0.1353803643 93 79 50
-0.2176875217 -0.3187946763 -0.1441573489 92 78 49
-0.2192646055 -0.3197143691 -0.1525027704 93 79 52
-0.2186060035 -0.3193536947 -0.1480761458 93 79 52
-0.2192615699 -0.3199872268 -0.1414350607 94 80 51
-0.2220922323 -0.3218081555 -0.1495648492 92 78 51
-0.2217490254 -0.3216130054 -0.1475477159 92 78 51
-0.2213115428 -0.3214680991 -0.1407973487 92 78 49
-0.2205131133 -0.3207714740 -0.1458687850 93 79 52
-0.2206568903 -0.3211376261 -0.1352689341 92 81 51
-0.2221193448 -0.3224386418 -0.1249723992 95 81 52
-0.2213586968 -0.3218755762 -0.1257556700 93 79 50
-0.2217468208 -0.3221249963 -0.1268806433 94 80 51
-0.2171884879 -0.3184979963 -0.1417445258 93 79 50
-0.2225285558 -0.3222515671 -0.1442693543 93 79 50
-0.2198063826 -0.3202163527 -0.1478829887 91 77 50
-0.2218653829 -0.3219790481 -0.1361637013 92 81 51
-0.2170001377 -0.3184143768 -0.1396927302 92 78 49
-0.2224468580 -0.3226560024 -0.1256443930 95 81 52
-0.2228428955 -0.3224340872 -0.1459645461 93 79 52
-0.2199587241 -0.3205320612 -0.1395594102 94 80 51
-0.2163687282 -0.3176912755 -0.1506330158 93 79 50
-0.2226187520 -0.3223594684 -0.1425211498 93 79 50
-0.2201299747 -0.3206055728 -0.1415261984 94 80 51
-0.2188052859 -0.3196844021 -0.1404989690 94 80 51
-0.2224444427 -0.3222618951 -0.1414346942 93 79 50
-0.2209905160 -0.3210970690 -0.1464959046 90 76 49
-0.2194468832 -0.3203708911 -0.1313250388 93 82 52
-0.2192762245 -0.3200817897 -0.1380510922 93 79 50
-0.2205488802 -0.3207406709 -0.1481370038 93 79 52
-0.2173265372 -0.3184084163 -0.1493196352 92 78 49
-0.2190644346 -0.3198583272 -0.1409527870 94 80 51
-0.2092629021 -0.3098171633 -0.1424980174 97 83 54
-0.2089638075 -0.3096465568 -0.1466186421 96 82 53
-0.2082229824 -0.3087348033 -0.1466186625 96 82 53
-0.2111370497 -0.3123033309 -0.1462452421 94 80 51
-0.2091898883 -0.3098445887 -0.1449450848 96 82 53
-0.2084149402 -0.3087624627 -0.1422666409 97 83 54
-0.2110830946 -0.3121264692 -0.1439406367 94 80 51
-0.2106155851 -0.3116616947 -0.1462482705 95 81 52
-0.2095917513 -0.3101862735 -0.1417549662 96 82 53
-0.2094605933 -0.3100722138 -0.1427430978 96 82 53
-0.2093580257 -0.3101412311 -0.1468168260 96 82 53
-0.2104013468 -0.3113283615 -0.1447947901 95 81 52
-0.2096561487 -0.3102082814 -0.1405605393 95 81 52
-0.2084498546 -0.3085437961 -0.1368078068 97 83 54
-0.2082725299 -0.3085177210 -0.1408171350 98 84 55
-0.2084943123 -0.3089011240 -0.1431215645 98 84 55
-0.2337950673 -0.3262994704 -0.1688187881 95 81 55
-0.2340550205 -0.3263808641 -0.1732857264 93 79 53
-0.2355175921 -0.3264293755 -0.1674882561 95 83 57
-0.2344745431 -0.3263735868 -0.1700218599 95 81 55
-0.2327705263 -0.3261504980 -0.1641932810 91 79 53
-0.2354568378 -0.3264722984 -0.1711238243 94 82 56
-0.2335839779 -0.3262374608 -0.1655000502 93 81 55
-0.2374873687 -0.3266382114 -0.1705207775 94 82 56
-0.2337019859 -0.3262730937 -0.1674284043 96 82 56
-0.2368108395 -0.3265782853 -0.1703706206 94 82 56
-0.2368267177 -0.3266395715 -0.1748976304 93 81 55
-0.2328599442 -0.3262892273 -0.1740948031 93 79 53
-0.2344935516 -0.3263665698 -0.1693688013 95 81 55
-0.2387274206 -0.3267901077 -0.1739729028 95 83 57
-0.2369614037 -0.3266263889 -0.1730304278 95 83 57
-0.2383777436 -0.3267515373 -0.1733214308 96 84 58
-0.2354483838 -0.3264548431 -0.1698598960 94 82 56
-0.2357866882 -0.3265120524 -0.1719929820 94 82 56
-0.2386844672 -0.3275612976 -0.1822082828 85 73 47
-0.2392732797 -0.3276380995 -0.1824344442 87 75 49
-0.2390842919 -0.3271011897 -0.1778305274 92 80 54
-0.2392571837 -0.3271270829 -0.1779264974 92 80 54
-0.2378374757 -0.3269149505 -0.1771427765 92 80 54
-0.2349956641 -0.3266380388 -0.1768806292 93 79 53
-0.2344656236 -0.3265243163 -0.1762826402 91 80 52
-0.2368154816 -0.3271275574 -0.1798100806 92 78 52
-0.2375961572 -0.3272577217 -0.1803605956 92 78 52
-0.2283741641 -0.3246408306 -0.1527655490 94 80 53
-0.2299711399 -0.3253378967 -0.1504785308 96 82 56
-0.2287108842 -0.3248058623 -0.1512270386 95 81 54
-0.2274690707 -0.3243110413 -0.1502430789 95 81 54
-0.2288303862 -0.3247398191 -0.1579708868 92 78 51
-0.2287551783 -0.3248892515 -0.1474163773 94 80 53
-0.2271661359 -0.3240932398 -0.1556829339 93 79 52
-0.2304242207 -0.3253619915 -0.1599894338 91 79 53
-0.2303044097 -0.3254171146 -0.1538769640 94 80 54
-0.2291073601 -0.3249101187 -0.1546841627 94 80 54
-0.2267927526 -0.3239187599 -0.1568904842 93 79 52
-0.2309611410 -0.3258261682 -0.1457762932 95 81 55
-0.2269000979 -0.3239619266 -0.1569525382 93 79 52
-0.2320047629 -0.3261436552 -0.1523573593 95 83 57
-0.2299567036 -0.3252144167 -0.1573541550 93 79 53
-0.2318063928 -0.3261877686 -0.1449954737 95 81 55
-0.2292203765 -0.3249944314 -0.1524758647 95 81 55
-0.2311722238 -0.3258705132 -0.1482697692 97 83 57
-0.2269334323 -0.3240911995 -0.1501935185 95 81 54
-0.2270411146 -0.3241516489 -0.1492526550 95 81 54
-0.2313925692 -0.3259263796 -0.1503124894 97 83 57
-0.2264880364 -0.3238929366 -0.1510566747 93 79 52
-0.2278171051 -0.3244502710 -0.1504866854 95 81 54
-0.2264060045 -0.3237687020 -0.1563472138 94 80 53
-0.2291064384 -0.3248854666 -0.1561040927 93 79 53
-0.2282520863 -0.3246549707 -0.1489959529 95 81 54
-0.2299305429 -0.3252485706 -0.1547256119 94 80 54
-0.2268362260 -0.3239356902 -0.1569478838 93 79 52
-0.2255262031 -0.3234819276 -0.1519179708 94 80 53
-0.2402814911 -0.3291965734 -0.1866011444 86 76 49
-0.2417521160 -0.3295839070 -0.1879621290 55 40 17
-0.2414841526 -0.3276473071 -0.1838088774 89 77 51
-0.2432562695 -0.3272654098 -0.1836728239 87 75 51
-0.2411582050 -0.3287201658 -0.1859322041 91 79 55
-0.2401927585 -0.3289623104 -0.1860776653 91 81 54
-0.2470224170 -0.3268345809 -0.1858078958 75 63 39
-0.2424433148 -0.3300219687 -0.1895544217 46 32 6
-0.2454181905 -0.3283584022 -0.1879143422 56 42 16
-0.2471144406 -0.3280329112 -0.1881940500 56 42 16
-0.2476731507 -0.3266551505 -0.1858088132 73 61 37
-0.2453542282 -0.3280424900 -0.1872638860 76 64 38
-0.2463381647 -0.3276233480 -0.1869770175 73 61 35
-0.2438899403 -0.3298867825 -0.1900706328 52 38 12
-0.2179685626 -0.3194247791 -0.1243939926 96 82 53
-0.2195403340 -0.3204954848 -0.1284803550 96 82 53
-0.2186850618 -0.3197811015 -0.1329629753 92 78 49
-0.2156597237 -0.3175885116 -0.1318005459 95 81 52
-0.2166703340 -0.3183970700 -0.1283143399 95 81 52
-0.2145007240 -0.3166270960 -0.1375359698 92 78 49
-0.2157375797 -0.3178579518 -0.1209889416 96 82 53
-0.2186387644 -0.3199443714 -0.1229277257 95 81 52
-0.2154379238 -0.3175938267 -0.1232634476 96 82 53
-0.2157034723 -0.3174237252 -0.1418179811 93 79 50
-0.2214075557 -0.3220176546 -0.1206007345 96 82 53
-0.2143347848 -0.3164398333 -0.1408821933 93 79 50
-0.2149419753 -0.3169265179 -0.1387423326 93 79 50
-0.2162515195 -0.3179749155 -0.1341907642 93 79 50
-0.2144477519 -0.3166359674 -0.1351101602 93 79 50
-0.2176909551 -0.3192312155 -0.1238989770 96 82 53
-0.2148310615 -0.3168665102 -0.1376626511 92 78 49
-0.2187348340 -0.3200268174 -0.1223121399 95 81 52
-0.2164368863 -0.3180417295 -0.1376989193 91 77 48
-0.2157468517 -0.3175354811 -0.1377468592 92 78 49
-0.2179662159 -0.3193500430 -0.1281102680 95 81 52
-0.2153846517 -0.3174054747 -0.1308642666 95 81 52
-0.2163649087 -0.3180089449 -0.1366848780 92 78 49
-0.2156781884 -0.3175303443 -0.1354491915 93 79 50
-0.2143292670 -0.3165288184 -0.1361475880 93 79 50
-0.2166843208 -0.3185498013 -0.1210622822 96 82 53
-0.2184770462 -0.3196525858 -0.1317510275 94 80 51
-0.2154529130 -0.3173180632 -0.1378572585 92 78 49
-0.2150970167 -0.3169652057 -0.1425517502 92 78 49
-0.2153634919 -0.3171777786 -0.1416643680 93 79 50
-0.2150730932 -0.3172702429 -0.1261350544 95 81 52
-0.2166065370 -0.3181779012 -0.1370913330 92 78 49
-0.2151127368 -0.3169838275 -0.1421898796 92 78 49
-0.2150665039 -0.3171481386 -0.1321040387 94 80 51
-0.2152468481 -0.3174013891 -0.1259362045 95 81 52
-0.2154272446 -0.3173175444 -0.1369269909 92 78 49
-0.2182377397 -0.3194693828 -0.1321562054 93 79 50
-0.2184362472 -0.3197874877 -0.1233645176 95 81 52
-0.2178901175 -0.3192854578 -0.1285611510 94 80 51
-0.2159388494 -0.3177775180 -0.1325840791 94 80 51
-0.2208525275 -0.3215297393 -0.1247473484 94 80 51
-0.2162235341 -0.3180999492 -0.1267840634 95 81 52
-0.2157870491 -0.3174588719 -0.1431441071 91 77 48
-0.2145517041 -0.3168340397 -0.1289034892 94 80 51
-0.2154949617 -0.3174988649 -0.1302224132 95 81 52
-0.2257813714 -0.3238699619 -0.1372454547 93 84 55
-0.2246554663 -0.3231905993 -0.1485454989 94 80 53
-0.2257912980 -0.3238850157 -0.1366791091 93 84 55
-0.2261521726 -0.3240613993 -0.1351871394 93 84 55
-0.2252588885 -0.3234802140 -0.1463245921 94 80 53
-0.2240152300 -0.3232912059 -0.1298995056 93 82 52
-0.2289754609 -0.3250539330 -0.1434619321 96 82 55
-0.2285635968 -0.3250579401 -0.1345931032 93 84 55
-0.2261935629 -0.3241851865 -0.1296838419 94 85 56
-0.2231863465 -0.3230423636 -0.1252790260 95 81 52
-0.2241842000 -0.3230951380 -0.1435489441 94 78 52
-0.2301439806 -0.3255535717 -0.1423122150 97 83 56
-0.2280099035 -0.3247204442 -0.1403253402 97 83 56
-0.2259180961 -0.3238259842 -0.1423855303 94 80 53
-0.2271039651 -0.3245139271 -0.1319048740 94 85 56
-0.2257789107 -0.3239249184 -0.1343639717 93 84 55
-0.2240575661 -0.3229729161 -0.1471787667 94 80 53
-0.2286394796 -0.3250462092 -0.1367931279 93 84 55
-0.2282792997 -0.3248487191 -0.1393864882 93 82 54
-0.2242464517 -0.3231964753 -0.1396403686 96 82 55
-0.2244397169 -0.3231298806 -0.1471341866 94 80 53
-0.2242298181 -0.3231578627 -0.1412786964 94 80 53
-0.2262099760 -0.3242048459 -0.1290167820 94 85 56
-0.2236406607 -0.3227115617 -0.1518674414 93 79 52
-0.2240314086 -0.3232089877 -0.1344732172 94 83 53
-0.2269581205 -0.3241535451 -0.1473935754 94 80 53
-0.2259010959 -0.3238483083 -0.1408785004 96 82 55
-0.2232958952 -0.3225541209 -0.1527228568 92 78 51
-0.2252770716 -0.3236196263 -0.1395286500 96 82 55
-0.2233891953 -0.3226139596 -0.1516040744 92 78 51
-0.2288766315 -0.3251858902 -0.1345887960 93 84 55
-0.2230287455 -0.3226821386 -0.1405123816 94 80 51
-0.2261767790 -0.3238878541 -0.1446405659 95 79 53
-0.2298794859 -0.3255406780 -0.1374131448 93 84 55
-0.2291074663 -0.3252249188 -0.1374342218 93 84 55
-0.2263656679 -0.3239959119 -0.1430494322 94 80 53
-0.2241148960 -0.3229025373 -0.1520083768 94 80 53
-0.2285100430 -0.3250363392 -0.1345789702 93 84 55
-0.2288225969 -0.3250452843 -0.1406921571 95 81 54
-0.2247506378 -0.3236340765 -0.1277124235 96 82 53
-0.2239212684 -0.3233583699 -0.1244649729 96 82 53
-0.2287206033 -0.3249976045 -0.1410020290 95 81 54
-0.2274764446 -0.3245112266 -0.1398780741 95 84 56
-0.2278909390 -0.3245309152 -0.1475821316 94 80 53
-0.2236145987 -0.3229283574 -0.1401564221 94 80 51
-0.2265526821 -0.3242322578 -0.1348132803 92 83 54
-0.2231892467 -0.3228283792 -0.1363581416 93 82 52
-0.2243756582 -0.3231525420 -0.1446200321 95 79 53
-0.2272264907 -0.3243350291 -0.1436933937 94 80 53
-0.2270462664 -0.3243054144 -0.1414277081 95 81 54
-0.2265878344 -0.3242170245 -0.1363369876 93 84 55
-0.2133460103 -0.3156071494 -0.1237393612 95 81 52
-0.2094170722 -0.3098460382 -0.1381502488 95 81 52
-0.2117058101 -0.3131761971 -0.1309606484 95 81 52
-0.2100196699 -0.3107375358 -0.1355724888 96 82 53
-0.2112251944 -0.3122682570 -0.1421860780 94 80 51
-0.2110607494 -0.3122481436 -0.1324969660 96 82 53
-0.2139878279 -0.3163241848 -0.1318201432 94 80 51
-0.2136416914 -0.3157401127 -0.1366532254 92 78 49
-0.2083505176 -0.3084032244 -0.1364226598 97 83 54
-0.2134875014 -0.3153092222 -0.1467557459 91 77 48
-0.2113447975 -0.3124494791 -0.1414752063 94 80 51
-0.2128435850 -0.3148599271 -0.1260712585 96 82 53
-0.2128693038 -0.3147993877 -0.1305522845 95 81 52
-0.2133518726 -0.3155568875 -0.1264587398 96 82 53
-0.2132473340 -0.3154401932 -0.1251380915 95 81 52
-0.2139796834 -0.3163394646 -0.1305823398 94 80 51
-0.2108374430 -0.3120014159 -0.1295574085 96 82 53
-0.2103007189 -0.3111575297 -0.1341744937 96 82 53
-0.2135215284 -0.3154866161 -0.1406935799 92 78 49
-0.2085689768 -0.3086995698 -0.1367384156 97 83 54
-0.2135638340 -0.3156925528 -0.1338371641 94 80 51
-0.2129174561 -0.3148068425 -0.1333165311 93 79 50
-0.2112707613 -0.3124540573 -0.1364781034 96 82 53
-0.2108069562 -0.3119105147 -0.1318205532 96 82 53
-0.2133466759 -0.3151252891 -0.1462215544 91 77 48
-0.2132376315 -0.3151511572 -0.1379709399 93 79 50
-0.2107842387 -0.3118811389 -0.1317206134 96 82 53
-0.2137520086 -0.3160518870 -0.1292628031 94 80 51
-0.2092996873 -0.3096880156 -0.1379240984 95 81 52
-0.2132502168 -0.3151263974 -0.1399371579 93 79 50
-0.2140479995 -0.3160384387 -0.1490147549 92 78 49
-0.2107656727 -0.3117274967 -0.1376757362 96 82 53
-0.2135137812 -0.3156705383 -0.1316281280 94 80 51
-0.2133158792 -0.3151013115 -0.1453481865 91 77 48
-0.2120270473 -0.3134970828 -0.1367747033 94 80 51
-0.2129389116 -0.3146615348 -0.1414695630 93 79 50
-0.2138096147 -0.3158168376 -0.1439308093 92 78 49
-0.2137054272 -0.3161153262 -0.1232986831 95 81 52
-0.2118885176 -0.3133610919 -0.1341562942 94 80 51
-0.2121540988 -0.3139004812 -0.1261988555 96 82 53
-0.2132619816 -0.3153989134 -0.1280068726 95 81 52
-0.2374665214 -0.3266216612 -0.1691789973 93 81 55
-0.2380845613 -0.3265750979 -0.1597056236 97 85 59
-0.2382648768 -0.3265897383 -0.1595603023 96 84 58
-0.2391409957 -0.3267451867 -0.1666762741 94 82 56
-0.2380175526 -0.3265468051 -0.1576395497 95 83 57
-0.2399834566 -0.3268137898 -0.1660159569 96 84 58
-0.2367653376 -0.3265113935 -0.1647959027 93 81 55
-0.2397905675 -0.3267287607 -0.1597359139 97 85 59
-0.2377025918 -0.3266142527 -0.1665232148 94 82 56
-0.2371080052 -0.3264896501 -0.1599213468 95 83 57
-0.2378639304 -0.3265796748 -0.1619699739 94 82 56
-0.2396261238 -0.3267635345 -0.1643332246 96 84 58
