0.0898776737 0.2050703456 -0.0945528599 182 179 170
0.0890562937 0.2032883850 -0.0941471595 190 189 194
0.0909083808 0.2046975735 -0.0945452610 196 195 191
0.0904623552 0.2038679952 -0.0943523010 204 204 204
0.0850590567 0.1966051559 -0.0897623233 189 192 197
0.0873901327 0.1990591742 -0.0914141434 209 212 217
0.0872214306 0.1989975138 -0.0915263282 209 212 217
0.0868600955 0.1983956662 -0.0908276583 204 207 212
0.0856110075 0.1972553828 -0.0902916826 196 199 204
0.0825263971 0.1918698629 -0.0887924112 163 166 173
0.0830586136 0.1940612785 -0.0894040655 165 168 175
0.0819905746 0.1922443327 -0.0892203578 165 168 175
0.0826616975 0.1919402255 -0.0887510502 165 168 175
0.0849437022 0.1932575945 -0.0881062754 182 182 192
0.0845336277 0.1926502422 -0.0880722474 176 176 186
0.0832835981 0.1919954392 -0.0884524653 168 171 178
0.0844758611 0.1922592371 -0.0879439192 173 173 183
0.0832586387 0.1915440229 -0.0882827753 168 171 178
0.0831006642 0.1931042128 -0.0889952932 162 165 172
0.0778359042 0.1870605248 -0.0935861946 174 178 187
0.0778446823 0.1874122361 -0.0937977926 171 176 182
0.0791129296 0.1873184027 -0.0902923156 171 174 181
0.0787496201 0.1869523544 -0.0910334991 169 172 179
0.0787003513 0.1864690559 -0.0908437320 171 174 181
0.0783616911 0.1864002097 -0.0917169441 170 173 180
0.0781577062 0.1864864647 -0.0923283997 172 175 182
0.0776381325 0.1866893472 -0.0938745910 174 178 187
0.0780206937 0.1855706317 -0.0920872863 171 174 181
0.0831227431 0.1893578201 -0.0878065445 164 164 172
0.0830704276 0.1900159874 -0.0879758388 164 164 172
0.0811887334 0.1907350968 -0.0891632115 167 168 173
0.0822226491 0.1911168131 -0.0886766921 165 165 173
0.0824632451 0.1904541977 -0.0884030062 166 166 174
0.0826843887 0.1901797365 -0.0882228981 165 165 173
0.0813386761 0.1889873554 -0.0887076012 167 166 172
0.0828276559 0.1894447927 -0.0879872390 163 163 171
0.0759311852 0.1761025757 -0.0944974548 148 146 147
0.0775124025 0.1824115409 -0.0910101115 173 177 186
0.0772496263 0.1819659786 -0.0917113129 175 179 190
0.0762768417 0.1797849077 -0.0941496188 175 178 187
0.0769909989 0.1808430256 -0.0921986635 177 181 192
0.0770790768 0.1821693280 -0.0923123396 177 181 192
0.0763242641 0.1793286035 -0.0938640589 170 173 182
0.0774804994 0.1813776129 -0.0908049398 176 179 188
0.0769106379 0.1816387986 -0.0926892423 178 182 194
0.0765927738 0.1811473415 -0.0935515190 175 179 191
0.0916400783 0.2011458142 -0.0922334284 214 216 215
0.0944308589 0.2034031281 -0.0943020747 212 212 210
0.0916971369 0.2022550408 -0.0940695156 216 218 217
0.0901279113 0.2011663512 -0.0932110311 211 215 216
0.0933804659 0.2020499475 -0.0926737672 212 210 211
0.0934016586 0.2030665569 -0.0943759407 215 217 214
0.0918602054 0.2002115941 -0.0905197946 194 195 199
0.0921443448 0.2004740247 -0.0907854280 198 199 203
0.0893207955 0.2003778441 -0.0923838308 211 215 218
0.0911193253 0.2010993633 -0.0924797774 210 214 213
0.0909119310 0.2007906596 -0.0920882082 210 214 215
0.0910832427 0.2014084725 -0.0930238569 218 220 219
0.0930856027 0.2022173695 -0.0931401381 212 212 210
0.0862787299 0.1969930388 -0.0892032186 187 190 195
0.0866783304 0.1959265735 -0.0881321532 192 192 200
0.0875606769 0.1979614079 -0.0892615729 194 197 202
0.0899087727 0.1994186584 -0.0902707954 196 197 201
0.0904481570 0.1996428804 -0.0903780838 198 199 203
0.0880720018 0.2000497255 -0.0925074435 209 212 217
0.0879166556 0.1984594816 -0.0896300317 197 200 205
0.0894524785 0.1995483142 -0.0907758378 202 205 210
0.0897850306 0.1995272235 -0.0905447106 200 201 205
0.0909982416 0.1993886225 -0.0895864777 188 189 193
0.0854566167 0.1934803245 -0.0878845478 182 182 192
0.0863610918 0.1950405210 -0.0878647305 195 195 203
0.0855328121 0.1947362172 -0.0883024430 195 195 205
0.0866196899 0.1953193591 -0.0877966640 195 195 203
0.0852063480 0.1945577330 -0.0884531220 188 191 198
0.0861217714 0.1942680429 -0.0877357768 190 190 198
0.0773973694 0.1830736301 -0.0918806837 174 178 189
0.0774243740 0.1836161368 -0.0922695993 176 179 188
0.0776215868 0.1828899273 -0.0910436225 171 175 184
0.0775640860 0.1837575073 -0.0919699178 175 178 187
0.0787251782 0.1857850630 -0.0902189502 173 173 181
0.0781970144 0.1831506381 -0.0895304409 173 176 183
0.0785398533 0.1857379231 -0.0907382334 172 175 182
0.0786681788 0.1855709195 -0.0902055022 173 173 181
0.0791140121 0.1862465703 -0.0894439334 173 173 181
0.0840371266 0.1889012910 -0.0872436106 167 167 175
0.0808321667 0.1879406184 -0.0887709849 169 170 175
0.0819050827 0.1876253794 -0.0881498164 169 170 175
0.0882214575 0.1857299989 -0.0844861095 177 177 185
0.0860647055 0.1879879929 -0.0860149576 182 182 190
0.0829656991 0.1887303277 -0.0877801241 167 167 175
0.0854759675 0.1902940157 -0.0867237539 181 181 189
0.0847563064 0.1882019870 -0.0867430605 176 176 184
0.0863096327 0.1860796110 -0.0855563786 174 177 186
0.0822316166 0.1872072353 -0.0879051892 167 168 173
0.0853727323 0.1863817814 -0.0861034397 174 174 184
0.0852658453 0.1878579064 -0.0864145328 180 180 188
0.0869006958 0.1871256106 -0.0854245693 179 182 191
0.0860833460 0.1887646321 -0.0861390786 182 182 190
0.0821059609 0.1885255212 -0.0881989704 166 167 172
0.0812167638 0.1878777416 -0.0885569673 169 168 173
0.0857145798 0.1895520631 -0.0864697170 182 182 190
0.0842824418 0.1879979176 -0.0869581880 171 171 179
0.0762702271 0.1756098203 -0.0942778887 118 117 122
0.0762689741 0.1757859063 -0.0941505548 118 117 122
0.0764421429 0.1763500400 -0.0925776723 179 179 187
0.0763050997 0.1760808686 -0.0936859403 157 156 162
0.0767884396 0.1768503015 -0.0899156893 178 181 190
0.0763927436 0.1760289551 -0.0931496710 174 175 180
0.0766339722 0.1754791889 -0.0919869224 180 181 186
0.0762921448 0.1769949075 -0.0930673811 172 172 180
0.0761405037 0.1775233226 -0.0936575513 169 172 179
0.0765850905 0.1779783856 -0.0918528842 176 180 191
0.0774351794 0.1807804043 -0.0907279522 182 182 190
0.0766303009 0.1778110412 -0.0914586436 175 179 190
0.0770207294 0.1779547271 -0.0897335402 179 179 189
0.0763797415 0.1782459842 -0.0931229652 175 178 187
0.0767499901 0.1776706880 -0.0907348769 173 177 188
0.0774865529 0.1808963034 -0.0906034849 182 182 190
0.0771965237 0.1793356613 -0.0903481247 177 177 187
0.0768883991 0.1774340288 -0.0898193143 176 179 188
0.0776034385 0.1803300766 -0.0894430268 179 179 187
0.0942996906 0.2025486880 -0.0932718153 212 211 209
0.0961659357 0.1992199697 -0.0898433351 192 190 191
0.0956861823 0.2016958206 -0.0926081379 202 201 199
0.0939197808 0.2004889372 -0.0907874933 200 198 199
0.0955541468 0.2014284142 -0.0922660562 200 198 199
0.0957834796 0.2015654879 -0.0924796268 199 198 196
0.0941633977 0.2013156945 -0.0918062121 204 202 203
0.0942858138 0.2020609445 -0.0927015226 205 203 204
0.0943820093 0.2023231248 -0.0930290554 208 207 205
0.0974360621 0.1989620884 -0.0898438300 195 194 192
0.0972703453 0.1993597704 -0.0902669641 194 193 191
0.0933160557 0.1993282569 -0.0892954440 184 182 185
0.0930680819 0.1999973896 -0.0900146979 197 197 199
0.0953701748 0.2007312318 -0.0914120721 198 196 197
0.0878405195 0.1960559028 -0.0881878013 192 193 198
0.0901375827 0.1952711406 -0.0883830645 194 195 200
0.0879586558 0.1977128167 -0.0891797223 188 189 194
0.0884258248 0.1974959457 -0.0891863042 184 185 190
0.0877576858 0.1961298557 -0.0882071709 192 192 200
0.0881349884 0.1961050387 -0.0882994564 192 193 198
0.0890970693 0.1984132087 -0.0893372792 189 190 195
0.0917682521 0.1988139899 -0.0891617031 184 183 188
0.0900103385 0.1960274455 -0.0887824925 193 194 199
0.0888831309 0.1983383779 -0.0893429609 194 195 200
0.0913993452 0.1959318978 -0.0886315837 195 196 200
0.0912981864 0.1988027629 -0.0892042303 185 184 189
0.0904742972 0.1983251488 -0.0891889596 186 187 191
0.0910501636 0.1983639247 -0.0891417678 186 185 190
0.0882181945 0.1933733736 -0.0876300277 198 198 206
0.0888050190 0.1906288750 -0.0873949299 178 178 186
0.0891757250 0.1913375206 -0.0875822846 182 182 190
0.0860494586 0.1906581182 -0.0867306706 188 188 196
0.0868447542 0.1948859571 -0.0875049456 194 194 202
0.0874187969 0.1915820334 -0.0871898176 190 190 198
0.0886168278 0.1904592302 -0.0873259606 178 178 186
0.0886922933 0.1912407642 -0.0874517367 187 187 195
0.0792862577 0.1849472731 -0.0888669635 171 171 179
0.0821738063 0.1807902156 -0.0855982721 167 168 170
0.0790368413 0.1821175529 -0.0882880171 172 172 180
0.0799732808 0.1861211693 -0.0886734687 170 171 176
0.0817689911 0.1819437694 -0.0862106823 169 170 174
0.0798287909 0.1825556453 -0.0878178077 167 168 173
0.0801005841 0.1819010956 -0.0874390324 168 169 174
0.0788750879 0.1827564528 -0.0885807894 175 176 181
0.0792351751 0.1821200676 -0.0881413047 172 172 180
0.0793327300 0.1836052405 -0.0884699480 172 173 178
0.0818019812 0.1818454429 -0.0861596079 169 170 174
0.0813223159 0.1822585659 -0.0866276546 168 169 173
0.0833772442 0.1844518755 -0.0863706724 166 166 174
0.0864068549 0.1836339454 -0.0846299633 170 169 174
0.0846200442 0.1824642704 -0.0849851104 170 169 174
0.0855496957 0.1842299600 -0.0852706502 172 171 177
0.0831529812 0.1829449527 -0.0858624226 169 170 175
0.0849683448 0.1848388289 -0.0857883575 176 176 184
0.0861437961 0.1843860068 -0.0850579195 171 170 175
0.0839433993 0.1824530891 -0.0852950916 170 169 175
0.0829843812 0.1861639975 -0.0872491858 167 168 173
0.0823971717 0.1815404416 -0.0856428779 168 169 173
0.0881344795 0.1847359898 -0.0842748391 172 173 178
0.0828627841 0.1828175819 -0.0859455450 167 168 173
0.0835999614 0.1812367710 -0.0849603554 170 169 175
0.0849274067 0.1830826901 -0.0850935977 170 169 174
0.0809613696 0.1869752575 -0.0885192849 168 169 174
0.0837146414 0.1844571788 -0.0862159951 167 167 175
0.0817398632 0.1847402565 -0.0872489921 166 167 172
0.0847023770 0.1851305844 -0.0860305727 172 172 180
0.0840905991 0.1832496942 -0.0855504516 167 168 173
0.0848664803 0.1858486149 -0.0862461385 174 174 184
0.0808283852 0.1863262064 -0.0883172910 166 167 172
0.0820249001 0.1835138236 -0.0866180099 165 166 171
0.0871292491 0.1848628571 -0.0847936674 177 177 185
0.0827304209 0.1844484457 -0.0866699422 167 168 173
0.0862012199 0.1827503460 -0.0843664067 169 168 173
0.0874530269 0.1898761324 -0.0867632984 184 185 190
0.0895309953 0.1888364711 -0.0868366780 179 183 192
0.0885791752 0.1889242113 -0.0865264147 187 190 199
0.0889762759 0.1873303786 -0.0855468956 183 186 193
0.0885905962 0.1870616288 -0.0852044707 183 186 193
0.0898858829 0.1882774786 -0.0865775772 183 186 193
0.0873581706 0.1884913162 -0.0857399704 182 182 190
0.0896995040 0.1870040463 -0.0855977284 177 180 187
0.0892305960 0.1892712900 -0.0870286886 188 191 198
0.0884348268 0.1890953513 -0.0865917612 187 190 199
0.0768652331 0.1758859685 -0.0899830441 177 177 187
0.0767137374 0.1744157237 -0.0914389122 175 175 183
0.0769378443 0.1753357163 -0.0879999477 177 177 185
0.0768748383 0.1744531831 -0.0883278033 178 178 186
0.0769645595 0.1740705145 -0.0861818495 172 173 178
0.0768688920 0.1745564189 -0.0885497847 178 178 186
0.0767540449 0.1749031602 -0.0911501456 179 179 189
0.0767959345 0.1728082992 -0.0881856553 176 176 184
0.0769038065 0.1742004810 -0.0875026648 177 178 183
0.0766967485 0.1735268427 -0.0908606464 177 178 183
0.0766463633 0.1738548179 -0.0921815734 168 169 174
0.0768507814 0.1737106845 -0.0880376399 175 175 183
0.0767874137 0.1749968740 -0.0905937780 180 180 190
0.0775672746 0.1777373618 -0.0878992147 178 179 184
0.0784129549 0.1793165649 -0.0868473450 171 172 177
0.0781831345 0.1780018847 -0.0866774941 170 171 176
0.0773236444 0.1773708898 -0.0882477776 176 176 184
0.0784821794 0.1784561749 -0.0862519457 172 173 177
0.0780909492 0.1808793085 -0.0883615214 177 177 185
0.0785618290 0.1795039391 -0.0866155335 171 172 177
0.0773712249 0.1781555353 -0.0885466655 177 177 185
0.0775555574 0.1793377687 -0.0887486486 178 178 186
0.0961207095 0.1952497717 -0.0888320486 200 200 200
0.0957847370 0.1974887309 -0.0890848145 208 207 205
0.0971281702 0.1957798470 -0.0889052190 196 196 196
0.0948260566 0.1983521756 -0.0891721266 198 193 197
0.0964295667 0.1966488903 -0.0889963624 203 203 203
0.0972192756 0.1967177679 -0.0890139477 199 198 196
0.0961258575 0.1958471664 -0.0889006534 197 197 197
0.0950163281 0.1971899293 -0.0890411101 206 206 206
0.0965073669 0.1954778562 -0.0888629586 198 198 198
0.0968833401 0.1985139395 -0.0892159111 197 197 195
0.0966256434 0.1960564776 -0.0889307965 198 198 198
0.0914182572 0.1931018681 -0.0881033312 179 180 185
0.0907225687 0.1914291777 -0.0878518100 180 181 186
0.0890656258 0.1923093204 -0.0876709005 191 192 197
0.0910351079 0.1919302690 -0.0879432830 178 179 184
0.0883686493 0.1933500708 -0.0876524457 196 197 202
0.0912351364 0.1921211299 -0.0879906646 180 181 186
0.0893982344 0.1944618614 -0.0879074511 196 197 202
0.0908600067 0.1913648292 -0.0878675601 180 181 186
0.0931391455 0.1941173529 -0.0883896949 187 188 190
0.0926083722 0.1971055305 -0.0888818521 196 195 200
0.0933435156 0.1977325479 -0.0890814156 195 195 197
0.0922011804 0.1977715859 -0.0889586913 185 184 189
0.0957048965 0.1938057500 -0.0886239362 187 188 190
0.0933771158 0.1941377740 -0.0884205404 188 189 191
0.0947012568 0.1945724828 -0.0886515443 196 196 196
0.0924940244 0.1948846748 -0.0884581941 190 191 195
0.0936646740 0.1967081326 -0.0889285268 203 203 205
0.0806801920 0.1787525713 -0.0849721662 172 172 174
0.0788323609 0.1798501648 -0.0867431333 170 171 176
0.0795577013 0.1779042899 -0.0848749940 170 170 172
0.0808649034 0.1798245906 -0.0857100652 170 170 172
0.0789780578 0.1771029407 -0.0845435364 172 172 174
0.0790045883 0.1815192437 -0.0879495132 172 172 180
0.0788757804 0.1780123407 -0.0852986023 171 170 175
0.0794434507 0.1805550058 -0.0869841954 169 170 175
0.0787644737 0.1787946440 -0.0859597683 171 172 176
0.0817328128 0.1803228494 -0.0856631564 168 168 170
0.0793356312 0.1803943011 -0.0869135246 171 172 177
0.0880237117 0.1838755074 -0.0839545755 169 170 175
0.0859749439 0.1819568797 -0.0837368563 169 168 173
0.0869586539 0.1825777023 -0.0832110793 165 165 167
0.0866866085 0.1823560878 -0.0832517268 166 165 170
0.0858269125 0.1817322559 -0.0835406855 169 168 173
0.0861704744 0.1815435971 -0.0825062586 166 166 168
0.0859468623 0.1813864354 -0.0825921209 165 165 167
0.0877390269 0.1825726072 -0.0817499166 167 167 169
0.0878346053 0.1828471333 -0.0821482880 165 165 167
0.0882813285 0.1838685015 -0.0834610454 168 167 173
0.0838086096 0.1804129874 -0.0845239421 168 167 172
0.0840278160 0.1805267202 -0.0843551442 169 168 173
0.0912097440 0.1860648254 -0.0837886268 172 173 177
0.0910234484 0.1874929154 -0.0853745188 178 181 186
0.0905268646 0.1881729077 -0.0863920629 178 183 189
0.0910099008 0.1869691818 -0.0848455850 175 178 183
0.0912242605 0.1892256087 -0.0870240574 183 186 193
0.0897558580 0.1864731782 -0.0851432057 176 177 182
0.0899933938 0.1871983325 -0.0857348069 175 178 185
0.0904974889 0.1884000525 -0.0866441425 178 183 189
0.0908010093 0.1866415251 -0.0846436149 172 175 180
0.0901204577 0.1863094554 -0.0847405629 174 175 180
0.0906310326 0.1865879134 -0.0846979352 172 175 180
0.0914763572 0.1864368694 -0.0839990277 171 172 176
0.0770223940 0.1733828502 -0.0853055450 170 171 176
0.0775511632 0.1742231553 -0.0849321594 176 177 181
0.0772889368 0.1759097318 -0.0871566483 174 174 182
0.0783603750 0.1762627761 -0.0850914612 174 173 179
0.0784091175 0.1761458604 -0.0848685789 174 173 179
0.0775053905 0.1747384213 -0.0855346018 176 175 180
0.0773542419 0.1740909683 -0.0852464700 176 177 181
0.0774678890 0.1737368018 -0.0846477147 173 174 178
0.0769212472 0.1704621497 -0.0932470091 121 122 117
0.0770244847 0.1705822461 -0.0895938264 170 170 180
0.0771334044 0.1685629666 -0.0942264564 112 111 109
0.0769763324 0.1712911709 -0.0882725888 178 178 190
0.0768457595 0.1720423453 -0.0893216303 174 174 182
0.0771412281 0.1692869826 -0.0911222832 173 173 181
0.0768276165 0.1717689801 -0.0909612714 148 147 152
0.0772820654 0.1675184711 -0.0937805811 133 131 132
0.0770823158 0.1702989704 -0.0889337512 167 170 179
0.0770236371 0.1709249348 -0.0882646657 176 176 188
0.0769292657 0.1708328945 -0.0915339424 155 156 160
0.0766694168 0.1728438270 -0.0915807694 175 175 177
0.0772450822 0.1677041929 -0.0941846438 124 122 123
0.0768813796 0.1720614370 -0.0881495403 175 175 185
0.0768799548 0.1718204079 -0.0891466208 174 174 182
0.0765790375 0.1729280410 -0.0940301013 143 142 140
0.0768009993 0.1714264495 -0.0931353255 129 130 125
0.0770115391 0.1699305891 -0.0925695198 142 142 142
0.0768362190 0.1715799100 -0.0914441649 156 156 158
0.0765969066 0.1729868836 -0.0932472810 147 147 147
0.0941330686 0.1931477723 -0.0883643922 189 189 191
0.0931387715 0.1923357668 -0.0881896415 184 185 189
0.0922232503 0.1923379438 -0.0881053689 180 181 185
0.0955060920 0.1932762665 -0.0885042428 188 189 191
0.0922806015 0.1912197217 -0.0879963821 179 180 185
0.0929678138 0.1933359698 -0.0882760820 184 183 188
0.0921844525 0.1928691548 -0.0881560767 184 185 189
0.0918732823 0.1904423249 -0.0878793417 180 183 190
0.0824386072 0.1777576092 -0.0835882841 170 170 172
0.0823972847 0.1788193943 -0.0842547577 168 167 172
0.0828268434 0.1795993513 -0.0845663459 169 168 173
0.0826138899 0.1793952051 -0.0845236917 169 168 173
0.0816810767 0.1776807632 -0.0838343667 170 170 172
0.0872623321 0.1805237879 -0.0798259978 169 169 171
0.0871039203 0.1809726192 -0.0804109426 168 168 170
0.0861933693 0.1810774188 -0.0816841007 167 167 169
0.0849443943 0.1800509474 -0.0824427221 166 166 168
0.0879085332 0.1814075612 -0.0797311898 169 169 171
0.0851384187 0.1804169641 -0.0824992184 167 167 169
0.0893016000 0.1835786032 -0.0806774260 172 173 177
0.0892198111 0.1844270920 -0.0827883644 169 168 173
0.0893301583 0.1836334527 -0.0807248975 172 173 177
0.0893679831 0.1832416686 -0.0797500296 172 173 177
0.0953164078 0.1900443480 -0.0856320070 177 178 180
0.0928449612 0.1900870980 -0.0871450645 194 195 200
0.0941139607 0.1890344914 -0.0850661807 170 174 177
0.0962344844 0.1920161521 -0.0875809018 189 189 189
0.0940863036 0.1891942078 -0.0852842712 179 183 186
0.0946246437 0.1896669990 -0.0855637111 182 183 187
0.0941171195 0.1896550510 -0.0858482418 193 194 198
0.0937444821 0.1906430123 -0.0873162820 200 201 205
0.0947426213 0.1915847347 -0.0879166533 194 195 197
0.0935797998 0.1891691379 -0.0855516231 190 194 197
0.0930358284 0.1900374559 -0.0869696727 194 195 200
0.0923117209 0.1904219779 -0.0878829097 184 185 190
0.0922352044 0.1896204392 -0.0869155332 188 191 196
0.0905877040 0.1851054016 -0.0818339798 170 171 175
0.0917469213 0.1863141343 -0.0836601866 170 171 175
0.0896836572 0.1847616121 -0.0825165582 171 170 175
0.0928485931 0.1864658552 -0.0818883310 175 176 180
0.0904419976 0.1855632302 -0.0837495264 173 174 178
0.0900205293 0.1850233024 -0.0827321546 171 170 175
0.0920466683 0.1862619916 -0.0828494358 174 175 179
0.0911247588 0.1851591836 -0.0808992227 172 173 177
0.0899054094 0.1846651278 -0.0817130459 172 173 177
0.0909088213 0.1848314889 -0.0801983333 175 176 180
0.0782036954 0.1744662276 -0.0842875274 173 173 175
0.0781527817 0.1735881903 -0.0841241322 174 174 174
0.0788004334 0.1744872947 -0.0839994713 171 171 171
0.0794486212 0.1767028968 -0.0841569644 170 170 172
0.0785002397 0.1741819935 -0.0840811601 172 172 172
0.0804087965 0.1751121145 -0.0833449421 171 171 173
0.0771428620 0.1697009997 -0.0893195023 166 169 178
0.0772313264 0.1691931239 -0.0850267026 167 168 173
0.0772326312 0.1683836373 -0.0916466246 172 173 178
0.0771480986 0.1697167491 -0.0886836203 166 168 180
0.0772409435 0.1685803785 -0.0892060928 162 165 172
0.0771450827 0.1699823241 -0.0867611492 161 164 173
0.0772964703 0.1684489146 -0.0849506711 177 176 181
0.0772778761 0.1681643324 -0.0891140269 166 167 172
0.0773136513 0.1678872015 -0.0879758840 173 174 179
0.0771269790 0.1702761352 -0.0860573410 165 168 177
0.0772944950 0.1681992220 -0.0872217706 173 174 179
0.0771166081 0.1703689013 -0.0862837111 165 168 177
0.0772493428 0.1681398287 -0.0920678947 170 169 174
0.0773827189 0.1675015255 -0.0845339820 178 178 180
0.0771791743 0.1697846983 -0.0851227135 165 166 171
0.0770624331 0.1710329941 -0.0859703406 165 168 177
0.0773978287 0.1671366179 -0.0861187599 179 179 179
0.0827585903 0.1781892626 -0.0836510671 169 168 173
0.0823890675 0.1772679253 -0.0832694470 171 171 173
0.0833170251 0.1762793904 -0.0815960154 169 169 169
0.0836700648 0.1785503621 -0.0830689813 167 167 169
0.0831574443 0.1782987596 -0.0833576842 169 169 171
0.0836654772 0.1760871350 -0.0811102469 171 171 171
0.0852281886 0.1782210472 -0.0808316650 166 166 168
0.0840162237 0.1795330503 -0.0832802103 167 166 171
0.0851785838 0.1775928622 -0.0804761581 169 169 171
0.0852487716 0.1799237486 -0.0819429396 166 166 168
0.0847218389 0.1798401996 -0.0825704353 167 166 171
0.0864868950 0.1791927281 -0.0798487597 167 167 169
0.0850627121 0.1783732516 -0.0811479801 166 166 168
0.0837589257 0.1783733575 -0.0828388203 168 168 170
0.0850277687 0.1774129490 -0.0805514960 171 171 171
0.0852256605 0.1787535608 -0.0811908384 166 166 168
0.0855582368 0.1792720453 -0.0811060674 167 167 169
0.0880871517 0.1809969429 -0.0774703901 171 171 173
0.0879801797 0.1809278090 -0.0779729831 170 170 172
0.0877380223 0.1806413892 -0.0784288550 169 169 171
0.0884985608 0.1819275999 -0.0790264753 169 170 172
0.0903832881 0.1837870563 -0.0762656040 173 174 178
0.0901373378 0.1837773269 -0.0779717877 177 178 182
0.0893120493 0.1829986172 -0.0791455173 174 175 177
0.0890232997 0.1826762748 -0.0792518243 172 173 175
0.0893499138 0.1830815766 -0.0793798070 175 176 178
0.0793441268 0.1734601055 -0.0823004598 174 174 174
0.0809559359 0.1753216969 -0.0829657390 170 170 170
0.0814660773 0.1742912174 -0.0801022378 172 170 173
0.0811291049 0.1744244008 -0.0809545948 172 170 173
0.0812513224 0.1755269381 -0.0828296890 173 173 173
0.0796383578 0.1743308091 -0.0834294787 171 171 173
0.0814490779 0.1744014893 -0.0803417758 172 170 173
0.0794039908 0.1740498761 -0.0833132964 172 172 172
0.0775724529 0.1664728171 -0.0897747464 178 177 175
0.0776662444 0.1661758845 -0.0900818860 178 177 175
0.0788219182 0.1626381687 -0.0889406544 133 125 112
0.0780713058 0.1649920768 -0.0873960114 149 145 136
0.0775153688 0.1666310730 -0.0905023001 172 172 172
0.0779971931 0.1652484478 -0.0862683793 150 147 140
0.0777823863 0.1659237637 -0.0857577440 186 183 178
0.0776673489 0.1662441088 -0.0871659815 182 181 177
0.0780012407 0.1651832630 -0.0884134739 169 166 161
0.0778292601 0.1657755972 -0.0859018657 186 183 178
0.0782024337 0.1645968919 -0.0870133194 126 122 113
0.0781130937 0.1648098280 -0.0895662908 142 138 129
0.0775676702 0.1664416346 -0.0916447676 171 169 170
0.0781000603 0.1649054438 -0.0873110543 150 145 139
0.0778588936 0.1656611731 -0.0868377990 180 177 172
0.0776192086 0.1662409420 -0.0933412044 166 165 163
0.0775556043 0.1664511507 -0.0927728534 166 165 163
0.0775540933 0.1719056319 -0.0807189614 171 171 173
0.0775334948 0.1694481123 -0.0823018813 173 172 177
0.0773363525 0.1685092965 -0.0841856956 177 176 181
0.0771366205 0.1705886419 -0.0843139373 170 171 176
0.0776337693 0.1719189634 -0.0801726780 173 171 174
0.0772575718 0.1691944237 -0.0843156059 171 170 175
0.0775178768 0.1697804382 -0.0822121968 173 172 177
0.0772855471 0.1699615129 -0.0836759083 172 171 176
0.0773757103 0.1718210717 -0.0819741523 169 168 173
0.0828949966 0.1748043251 -0.0798681111 167 167 165
0.0820021079 0.1754459961 -0.0815723419 172 172 172
0.0826587740 0.1757774125 -0.0816267644 170 170 170
0.0829298006 0.1757517872 -0.0813848278 170 170 170
0.0825104635 0.1759020027 -0.0819391559 172 172 172
0.0857635562 0.1764765630 -0.0783348403 169 169 169
0.0857101049 0.1765511779 -0.0786048757 168 168 168
0.0861046770 0.1771352256 -0.0783299321 169 169 171
0.0866094948 0.1787454113 -0.0792848837 168 168 170
0.0860888894 0.1762279126 -0.0770024294 168 168 168
0.0870257710 0.1795961599 -0.0793500179 169 169 171
0.0855885503 0.1762330688 -0.0784803342 169 169 169
0.0853103677 0.1761755672 -0.0792106195 167 167 167
0.0885821490 0.1816659460 -0.0771742952 170 171 173
0.0881834532 0.1805557082 -0.0745113657 169 169 171
0.0895673323 0.1829464093 -0.0771487252 173 174 176
0.0887086687 0.1813739180 -0.0751099059 171 172 174
0.0887462419 0.1822685407 -0.0789279432 168 169 171
0.0895318055 0.1828783392 -0.0770507836 173 174 176
0.0900826874 0.1833743039 -0.0760429870 172 173 177
0.0895490394 0.1825187282 -0.0753254334 170 171 173
0.0867510116 0.1763288985 -0.0745007924 169 169 169
0.0865270321 0.1757253291 -0.0746919180 169 169 169
0.0868328964 0.1770138406 -0.0754287287 168 168 170
0.0876235207 0.1794139919 -0.0753335154 168 168 170
0.0866264072 0.1766456150 -0.0760094235 169 169 169
0.0870584087 0.1775371942 -0.0750550233 167 167 169
0.0871861557 0.1784814165 -0.0762354481 169 169 171
0.0872085050 0.1797339168 -0.0787787448 170 170 172
0.0869721434 0.1774346752 -0.0754079041 168 168 170
0.0797757712 0.1732346066 -0.0804974420 173 172 170
0.0793456741 0.1731006572 -0.0811028097 175 174 172
0.0771793784 0.1723844402 -0.0837880294 170 169 174
0.0788258058 0.1728693720 -0.0812269053 175 174 172
0.0780119513 0.1726743924 -0.0828846634 172 172 174
0.0806813265 0.1735772756 -0.0797539875 173 171 172
0.0776754046 0.1722535912 -0.0805908564 170 170 172
0.0786595159 0.1638488346 -0.0814838191 157 150 142
0.0789310047 0.1629624619 -0.0825822298 147 139 128
0.0781621649 0.1653010861 -0.0811390726 181 176 172
0.0783082777 0.1647465171 -0.0824839299 147 142 136
0.0786754256 0.1639852802 -0.0797168148 148 141 131
0.0786159660 0.1643724142 -0.0775999805 177 170 162
0.0788280059 0.1636121325 -0.0791189282 138 131 121
0.0784992569 0.1640418540 -0.0840454185 145 140 134
0.0785702990 0.1645980082 -0.0766715656 183 176 168
0.0786501291 0.1642994586 -0.0773631357 183 176 168
0.0787931262 0.1641047052 -0.0752964172 174 167 157
0.0782896332 0.1643809576 -0.0865539379 125 121 112
0.0788697693 0.1629559170 -0.0843416239 144 137 127
0.0781471661 0.1653348452 -0.0812262462 181 176 172
0.0788338118 0.1638346761 -0.0767947452 167 160 150
0.0788641279 0.1634739986 -0.0794614484 142 134 123
0.0785012829 0.1638354043 -0.0859962649 127 123 114
0.0788909755 0.1637002561 -0.0765184638 146 137 128
0.0788017540 0.1636690890 -0.0792922250 138 131 121
0.0788192971 0.1635302807 -0.0801558003 148 141 131
0.0781336573 0.1652440706 -0.0824827838 172 167 161
0.0786059979 0.1639166939 -0.0823061933 139 132 124
0.0775825025 0.1665910594 -0.0846512915 188 187 183
0.0776084284 0.1674277604 -0.0811161968 177 175 176
0.0775022549 0.1678862365 -0.0830507053 175 175 177
0.0774652593 0.1677379711 -0.0837044189 176 176 178
0.0776592585 0.1688020119 -0.0802953786 172 172 174
0.0775759687 0.1681187549 -0.0817440215 176 176 178
0.0777140028 0.1718664305 -0.0795160505 173 171 172
0.0775368651 0.1673219227 -0.0823926830 180 178 179
0.0775037001 0.1680805078 -0.0830376227 175 175 177
0.0776064358 0.1675164711 -0.0811577960 180 180 182
0.0834307136 0.1746431246 -0.0787154676 169 169 167
0.0830120502 0.1742901431 -0.0779542198 170 170 168
0.0851384104 0.1751237274 -0.0773408687 169 169 169
0.0844796856 0.1749876638 -0.0781014603 171 171 171
0.0832630106 0.1746403726 -0.0790580313 172 172 170
0.0835992295 0.1746532237 -0.0784054942 170 170 168
0.0887462036 0.1816857546 -0.0691988121 170 170 172
0.0892016746 0.1821031853 -0.0715390360 170 170 172
0.0894908058 0.1823671584 -0.0730379458 171 171 173
0.0906202865 0.1837804788 -0.0738460756 176 177 181
0.0882519296 0.1809855716 -0.0699242855 170 170 172
0.0881537920 0.1805693155 -0.0737302575 168 168 170
0.0881026041 0.1807360853 -0.0706447764 167 167 169
0.0881417240 0.1806220142 -0.0728260780 168 168 170
0.0902220615 0.1832401915 -0.0741157571 173 174 178
0.0897022488 0.1825339306 -0.0744811326 171 172 174
0.0889351475 0.1816243349 -0.0732681598 169 170 172
0.0879615976 0.1805982772 -0.0700335876 167 167 169
0.0880224582 0.1808408481 -0.0678789884 166 164 167
0.0857910420 0.1759184537 -0.0677351976 166 165 163
0.0858070492 0.1757385784 -0.0683394790 166 165 163
0.0868557706 0.1771489450 -0.0731661975 169 167 168
0.0868587633 0.1780272330 -0.0708766665 164 164 164
0.0864597421 0.1759869530 -0.0730016694 166 165 163
0.0861308641 0.1751643344 -0.0724900177 166 165 163
0.0855816116 0.1754515274 -0.0672594183 168 164 163
0.0865018686 0.1770581680 -0.0705226255 166 164 165
0.0869342869 0.1779024705 -0.0718205437 167 167 167
0.0863384240 0.1753181269 -0.0737755322 167 166 164
0.0867590427 0.1774822591 -0.0715001561 167 165 166
0.0865175190 0.1772931034 -0.0700311538 166 164 165
0.0862525789 0.1765508133 -0.0698286808 166 165 163
0.0857948226 0.1753323900 -0.0693100171 167 163 162
0.0869724592 0.1780805853 -0.0716622234 167 167 167
0.0795404376 0.1725728321 -0.0779773237 173 172 170
0.0806397351 0.1732349645 -0.0784711422 174 172 173
0.0810451013 0.1733842524 -0.0783258481 171 171 171
0.0800023306 0.1718466514 -0.0747188652 173 172 170
0.0786017592 0.1725484515 -0.0794225643 174 173 171
0.0793231161 0.1720505113 -0.0765289776 173 171 172
0.0796848411 0.1721317891 -0.0762200987 172 170 171
0.0782861734 0.1654053775 -0.0773974990 189 184 181
0.0774987167 0.1669120721 -0.0838785746 182 180 181
0.0779954008 0.1661400483 -0.0787425359 184 180 179
0.0780433517 0.1660268177 -0.0784741576 184 180 179
0.0778694372 0.1665500607 -0.0787859030 182 178 179
0.0787816844 0.1702216308 -0.0771996025 178 174 173
0.0788636830 0.1702043555 -0.0770253638 176 172 171
0.0785873584 0.1717857138 -0.0776244418 174 173 171
0.0780401615 0.1694552335 -0.0787680464 178 176 177
0.0779937716 0.1699573045 -0.0788704716 176 175 173
0.0791523390 0.1718818125 -0.0764255978 175 173 174
0.0792663777 0.1712110750 -0.0761782177 174 172 173
0.0778818831 0.1704525278 -0.0791119134 174 173 171
0.0778067216 0.1681733808 -0.0792536697 175 175 177
0.0839047179 0.1737980847 -0.0744911428 172 171 169
0.0848217267 0.1744579356 -0.0751573535 171 171 169
0.0812495340 0.1736711602 -0.0789815101 176 174 177
0.0858453006 0.1749171449 -0.0749029060 169 169 169
0.0817588549 0.1738641041 -0.0787269395 170 170 170
0.0838332634 0.1741187630 -0.0757783928 170 170 168
0.0810321401 0.1731188905 -0.0773989520 173 173 173
0.0811449232 0.1732125753 -0.0775259831 173 173 173
0.0825458104 0.1736641933 -0.0765412004 170 170 168
0.0814342071 0.1734608839 -0.0778806447 172 172 172
0.0833788712 0.1735293444 -0.0745037142 173 172 170
0.0810183657 0.1731107416 -0.0773952889 173 173 173
0.0859482033 0.1763675258 -0.0674174754 163 162 160
0.0879736831 0.1804428074 -0.0722891286 169 169 171
0.0871236088 0.1788915908 -0.0689109347 164 164 164
0.0875471280 0.1795933407 -0.0711897283 166 166 166
0.0873850675 0.1792334656 -0.0710832597 166 166 166
0.0868851288 0.1784867673 -0.0677088362 165 165 165
0.0868561378 0.1780866747 -0.0705031153 164 164 164
0.0879470173 0.1803468507 -0.0725795137 167 167 169
0.0877489098 0.1802739695 -0.0693735181 168 168 168
0.0870153606 0.1786870975 -0.0685390973 164 164 164
0.0870432428 0.1787881275 -0.0682296337 166 164 165
0.0872187923 0.1792105373 -0.0680719353 164 162 163
0.0871960087 0.1792982392 -0.0668980322 166 164 165
0.0871408835 0.1788103685 -0.0699244012 165 165 165
0.0866789869 0.1779609331 -0.0681438476 165 163 164
0.0871950389 0.1793248981 -0.0666559445 166 164 165
0.0818936014 0.1727845343 -0.0698191448 175 171 170
0.0820431457 0.1728422680 -0.0701588844 175 171 170
0.0853983133 0.1751405796 -0.0679949538 169 165 164
0.0837988106 0.1741628966 -0.0678753601 173 169 168
0.0815410158 0.1725753268 -0.0697312396 175 171 170
0.0844701051 0.1743724921 -0.0698840588 172 168 167
0.0851043043 0.1748482708 -0.0690715944 169 165 164
0.0841476438 0.1740510447 -0.0710731914 172 168 167
0.0826083260 0.1733411202 -0.0687045081 175 171 170
0.0849493364 0.1747168142 -0.0694184192 171 167 166
0.0842918972 0.1744631076 -0.0679237821 172 168 167
0.0830940231 0.1734931941 -0.0701536853 173 169 170
0.0838887324 0.1738084095 -0.0718771076 173 169 170
0.0852197451 0.1751249914 -0.0670687341 170 166 165
0.0847309941 0.1742631899 -0.0725259447 172 168 167
0.0781595980 0.1664997668 -0.0755987586 186 182 183
0.0784104394 0.1654175288 -0.0756716082 193 188 182
0.0779002541 0.1667710271 -0.0778046610 181 177 178
0.0782899544 0.1663645178 -0.0744870331 184 180 179
0.0783872208 0.1659106156 -0.0746074624 188 183 180
0.0791340533 0.1695751079 -0.0751752180 178 174 173
0.0788957106 0.1693125141 -0.0765017710 179 175 172
0.0788577088 0.1691936239 -0.0764271604 178 174 171
0.0782918545 0.1675125610 -0.0756476853 182 178 179
0.0783056189 0.1679554602 -0.0771600124 182 181 179
0.0785654494 0.1687494697 -0.0776000107 180 176 173
0.0790198393 0.1694096477 -0.0756637047 179 175 172
0.0790541981 0.1692956285 -0.0749082957 179 175 172
0.0783576095 0.1680385134 -0.0769663862 182 181 179
0.0808170192 0.1721833293 -0.0722950466 176 172 171
0.0802473002 0.1719026468 -0.0743143615 174 173 171
0.0827389126 0.1731798268 -0.0725107814 171 170 168
0.0809638073 0.1722549596 -0.0716774275 175 171 170
0.0849514103 0.1743343254 -0.0737959176 169 169 167
0.0811894977 0.1723761810 -0.0722975622 175 171 170
0.0821938642 0.1728886147 -0.0712312965 173 172 170
0.0820150764 0.1727987187 -0.0716083353 176 172 171
0.0810666674 0.1723078005 -0.0716193384 175 171 170
0.0820734566 0.1728392993 -0.0730745457 172 171 169
0.0811341626 0.1723398283 -0.0712067081 176 172 171
0.0865847811 0.1771963634 -0.0623347229 162 161 157
0.0860777472 0.1766347617 -0.0656436779 164 163 161
0.0868355316 0.1784299695 -0.0658106200 165 165 165
0.0872783030 0.1791516414 -0.0641578474 163 161 162
0.0869416593 0.1781779652 -0.0631415184 161 160 156
0.0871582651 0.1789713373 -0.0646879959 165 163 164
0.0861475128 0.1768644556 -0.0660035757 164 163 161
0.0869887947 0.1777630536 -0.0603355904 159 156 151
0.0878725335 0.1791720556 -0.0568688309 157 152 149
0.0876817893 0.1799020774 -0.0631480156 165 164 162
0.0875082414 0.1797183643 -0.0643261330 166 164 165
0.0869749710 0.1786714949 -0.0653663550 165 165 165
0.0876293285 0.1798855922 -0.0637129864 166 165 163
0.0875785406 0.1795921328 -0.0627757746 163 162 160
0.0871753515 0.1781395179 -0.0600264110 158 155 148
0.0864982878 0.1771443676 -0.0631334769 162 161 157
0.0860000960 0.1762910891 -0.0647723589 164 163 161
0.0868124242 0.1776288431 -0.0618136073 161 160 155
0.0876140671 0.1799393492 -0.0641905018 166 164 165
0.0867902965 0.1782125558 -0.0652109948 165 163 164
0.0866739241 0.1772614150 -0.0615728068 162 161 156
0.0835325238 0.1743209637 -0.0659323819 172 168 167
0.0835391492 0.1741134809 -0.0671772888 172 168 167
0.0816056799 0.1730714654 -0.0667780520 174 170 169
0.0851594671 0.1751497176 -0.0665515199 170 166 165
0.0814261509 0.1725773637 -0.0690821738 175 171 170
0.0820476201 0.1732868751 -0.0670034555 172 168 167
0.0853812638 0.1752852105 -0.0665032884 168 164 163
0.0830732544 0.1738871278 -0.0669353523 172 168 167
0.0782157858 0.1661602986 -0.0708772608 181 177 174
0.0784102805 0.1657183351 -0.0729900523 185 180 174
0.0785827024 0.1649285661 -0.0721603963 183 180 175
0.0784705510 0.1655168679 -0.0732066629 185 180 174
0.0783162365 0.1658484607 -0.0714008627 183 178 174
0.0780909274 0.1666224528 -0.0707326936 180 175 172
0.0793630185 0.1701004182 -0.0742984669 176 172 171
0.0788360282 0.1708843796 -0.0707354765 178 174 173
0.0789090679 0.1695653050 -0.0732313513 177 173 170
0.0788692909 0.1705939571 -0.0713588849 178 174 173
0.0789075609 0.1688096065 -0.0744748072 180 176 173
0.0791377078 0.1713754251 -0.0712206437 176 172 171
0.0790913848 0.1703538957 -0.0727110585 177 173 172
0.0786253360 0.1687303665 -0.0733921716 178 174 171
0.0792856589 0.1710462940 -0.0724012912 175 171 170
0.0805392965 0.1720896395 -0.0707260767 175 171 170
0.0798404973 0.1719323806 -0.0711553010 177 173 172
0.0801855314 0.1719260060 -0.0726234132 176 172 171
0.0895858364 0.1815816502 -0.0609426066 161 159 160
0.0899572402 0.1810929086 -0.0554941209 159 155 152
0.0909948012 0.1822347053 -0.0561791946 161 157 156
0.0912179651 0.1825340768 -0.0566677888 160 156 155
0.0908526555 0.1822439525 -0.0571364154 161 160 158
0.0881278493 0.1797681777 -0.0586539046 160 156 153
0.0896716764 0.1813287010 -0.0587952031 160 159 157
0.0921931018 0.1829417940 -0.0530902698 159 155 152
0.0889624486 0.1809003438 -0.0605608716 164 163 161
0.0894250503 0.1807108987 -0.0564347097 162 158 155
0.0899064383 0.1809412118 -0.0548528528 158 154 151
0.0910716398 0.1823014249 -0.0561167572 161 157 156
0.0882820134 0.1807967313 -0.0642048002 167 165 168
0.0890856420 0.1809889815 -0.0603444636 160 159 157
0.0888356685 0.1811959442 -0.0632376627 163 161 162
0.0913802632 0.1824363507 -0.0550218446 161 157 156
0.0879356875 0.1799734798 -0.0611711202 161 160 158
0.0893678077 0.1810197257 -0.0587558434 160 159 157
0.0888841874 0.1807159488 -0.0598857366 159 158 156
0.0889438857 0.1810109916 -0.0613801944 164 163 161
0.0914431648 0.1826708237 -0.0561117806 160 156 155
0.0908715639 0.1816809761 -0.0534452133 160 156 153
0.0912688592 0.1822955098 -0.0548325362 161 157 156
0.0919874474 0.1826130181 -0.0523044412 160 156 153
0.0911825839 0.1821816513 -0.0546555636 161 157 154
0.0899548062 0.1808648680 -0.0540627564 158 154 151
0.0924342162 0.1831730679 -0.0530333639 158 154 151
0.0913276306 0.1821856313 -0.0537639220 159 155 152
0.0914903808 0.1825514722 -0.0550561129 160 156 155
0.0885159568 0.1806280869 -0.0616560346 162 160 161
0.0857198418 0.1757390029 -0.0614689461 159 156 151
0.0875752499 0.1784981969 -0.0559052315 156 151 148
0.0864304168 0.1767961144 -0.0591294882 160 155 151
0.0860605468 0.1762444521 -0.0610679302 162 159 154
0.0859157806 0.1760252899 -0.0634815103 164 160 159
0.0867118905 0.1772152406 -0.0580077621 158 155 150
0.0860556726 0.1762413824 -0.0589501613 160 155 151
0.0855479518 0.1754848532 -0.0612345104 158 155 150
0.0854613089 0.1753508004 -0.0641505924 164 160 159
0.0859995505 0.1761531821 -0.0615375524 161 158 153
0.0804136629 0.1723717729 -0.0682066744 175 171 170
0.0803386403 0.1722251871 -0.0689037828 176 172 171
0.0796658911 0.1720921334 -0.0689160512 174 170 169
0.0804778510 0.1721716463 -0.0693293797 176 172 171
0.0830785144 0.1741642209 -0.0652756850 171 167 166
0.0802933810 0.1729304098 -0.0625811945 173 169 166
0.0828380739 0.1740856252 -0.0647732764 172 168 167
0.0794045573 0.1725935708 -0.0611713654 171 168 163
0.0800932943 0.1729193111 -0.0616383271 172 168 165
0.0788170025 0.1712888514 -0.0696064507 178 174 173
0.0788019818 0.1711577942 -0.0698732283 178 174 173
0.0784397173 0.1688678342 -0.0716886613 181 177 174
0.0786110763 0.1699754612 -0.0707003730 181 177 174
0.0780971634 0.1672637499 -0.0704284698 180 176 177
0.0784780926 0.1690615475 -0.0717555167 179 175 172
0.0781552833 0.1671989411 -0.0724294497 179 175 176
0.0781119076 0.1668738551 -0.0729167653 179 175 176
0.0780762787 0.1670573762 -0.0709274905 178 174 175
0.0782362288 0.1673823599 -0.0737647707 180 176 177
0.0782868071 0.1657994122 -0.0688799398 186 183 178
0.0786890271 0.1644620413 -0.0639768408 158 151 145
0.0783796658 0.1655349195 -0.0707744705 184 181 176
0.0783594905 0.1655725420 -0.0690059720 186 183 178
0.0786910722 0.1644351103 -0.0625753496 162 153 146
0.0786450768 0.1646623683 -0.0682183300 190 186 177
0.0781701322 0.1661340307 -0.0666560485 183 180 173
0.0784015870 0.1654674757 -0.0708794955 184 181 176
0.0788111682 0.1640786817 -0.0640440108 159 150 143
0.0784966517 0.1651562391 -0.0700523494 189 186 179
0.0784715316 0.1651780249 -0.0661369650 196 189 181
0.0787230538 0.1644105062 -0.0677744532 181 174 166
0.0787312532 0.1644388042 -0.0714737135 182 175 167
0.0787272036 0.1644623463 -0.0722121596 187 184 177
0.0911484717 0.1816443692 -0.0502913556 157 154 149
0.0886488599 0.1794472434 -0.0516778995 155 152 147
0.0889865474 0.1796855539 -0.0506539060 155 152 147
0.0905049772 0.1812286168 -0.0527913310 158 154 151
0.0885257343 0.1793896778 -0.0524705959 153 150 145
0.0884303814 0.1793375048 -0.0529759265 154 151 146
0.0902633247 0.1810326806 -0.0531609279 159 155 152
0.0916586337 0.1820392891 -0.0492432783 158 155 150
0.0887592054 0.1795017077 -0.0510085777 155 152 147
0.0905443962 0.1811173437 -0.0506829038 156 153 148
0.0910096408 0.1815895042 -0.0513287762 157 153 150
0.0930974870 0.1834148296 -0.0500295945 159 156 151
0.0908576714 0.1813657727 -0.0501239694 156 153 148
0.0898444588 0.1806388441 -0.0530263737 156 153 148
0.0892847364 0.1798279782 -0.0487771772 155 150 144
0.0891858399 0.1798191921 -0.0499494087 154 151 146
0.0911977094 0.1817701874 -0.0514442794 158 154 151
0.0889203642 0.1797871892 -0.0529757591 155 152 147
0.0889286528 0.1798045993 -0.0531159325 155 152 147
0.0845494834 0.1749213720 -0.0655372189 171 167 166
0.0806402779 0.1731658914 -0.0614650284 169 165 162
0.0804853903 0.1730942506 -0.0602514301 168 165 160
0.0830210797 0.1742302475 -0.0615372500 167 163 160
0.0833149480 0.1743587417 -0.0600927995 162 158 155
0.0827254653 0.1741018919 -0.0634452418 170 166 165
0.0806044043 0.1731470971 -0.0600736646 169 165 162
0.0829908586 0.1742200974 -0.0632310826 169 165 162
0.0848559686 0.1750512759 -0.0619595207 161 157 154
0.0804738271 0.1730883777 -0.0598963576 169 165 162
0.0842970787 0.1748079391 -0.0652302831 171 167 166
0.0810428661 0.1733477516 -0.0624253272 170 166 163
0.0802814580 0.1730059564 -0.0616953195 172 168 165
0.0828413845 0.1741473995 -0.0602640389 163 159 156
0.0841377755 0.1747294635 -0.0615652667 161 157 154
0.0838436426 0.1745971388 -0.0611376481 161 157 154
0.0850033901 0.1751215220 -0.0641527654 166 162 161
0.0851516139 0.1751901588 -0.0653535534 168 164 163
0.0796701834 0.1727292825 -0.0599626982 169 166 161
0.0867520037 0.1772900146 -0.0569050715 157 152 148
0.0854108250 0.1754545233 -0.0549225307 158 153 147
0.0869174774 0.1776159033 -0.0544375044 155 150 146
0.0854961947 0.1755774045 -0.0548837675 157 152 146
0.0858718434 0.1761466336 -0.0539352439 159 154 148
0.0872266588 0.1780363049 -0.0549691024 155 150 146
0.0856884501 0.1759539280 -0.0520743850 156 151 145
0.0870869442 0.1778008450 -0.0559696598 158 153 149
0.0861634502 0.1764773129 -0.0562322150 159 154 150
0.0855684325 0.1755570723 -0.0582419356 161 156 152
0.0856620676 0.1757687362 -0.0561021410 160 155 151
0.0853528591 0.1753333111 -0.0559793018 161 153 150
0.0872165279 0.1779798011 -0.0561172329 156 153 148
0.0799558104 0.1725091110 -0.0668675994 174 170 169
0.0790495023 0.1723128982 -0.0657612326 174 170 167
0.0805077585 0.1729204020 -0.0650010019 172 168 167
0.0792734615 0.1721519248 -0.0678581907 176 172 171
0.0793039778 0.1721246076 -0.0681907851 176 172 171
0.0789514835 0.1723886911 -0.0629117278 171 167 164
0.0787875537 0.1722924049 -0.0610303075 173 170 165
0.0787790984 0.1723253448 -0.0628194734 171 167 164
0.0791030940 0.1724731299 -0.0644222974 174 170 167
0.0808206668 0.1730857096 -0.0644171333 171 167 164
0.0796758164 0.1726656016 -0.0638337962 173 169 166
0.0781677686 0.1711981453 -0.0661724345 172 168 165
0.0781816982 0.1701649801 -0.0670878132 176 172 171
0.0785087756 0.1708876891 -0.0681830018 175 171 170
0.0780054102 0.1712078356 -0.0653279541 173 169 168
0.0784303094 0.1698434017 -0.0686313838 176 172 171
0.0786267045 0.1706427626 -0.0689906312 175 171 170
0.0780676993 0.1718166746 -0.0651517729 170 166 163
0.0780961314 0.1700433385 -0.0667462454 176 172 171
0.0779864655 0.1664869563 -0.0628658643 179 176 169
0.0780885999 0.1663857170 -0.0669351949 180 177 172
0.0782366272 0.1656806983 -0.0606418032 172 163 156
0.0785653799 0.1647821827 -0.0612355509 170 161 154
0.0784022848 0.1653048527 -0.0626205467 166 157 150
0.0779811852 0.1666821994 -0.0668046691 180 177 172
0.0778719254 0.1667321528 -0.0611772918 174 167 161
0.0779356053 0.1667812334 -0.0661646258 179 176 171
0.0785060283 0.1649636220 -0.0615481743 170 161 154
0.0783129227 0.1655207536 -0.0618404021 174 165 158
0.0875636010 0.1783310230 -0.0527212152 156 151 147
0.0867497211 0.1771342902 -0.0506456503 156 151 145
0.0874789634 0.1782139456 -0.0525787255 154 149 145
0.0879642200 0.1787164913 -0.0517175465 156 151 147
0.0871416743 0.1776328739 -0.0508718409 154 149 143
0.0876266833 0.1783922383 -0.0525683359 156 151 147
0.0879990600 0.1790637054 -0.0547506851 154 150 147
0.0877529532 0.1784276858 -0.0513960463 155 150 146
0.0870709982 0.1776002591 -0.0514009295 155 150 146
0.0867820814 0.1774204769 -0.0531016690 157 152 148
0.0883397599 0.1788855959 -0.0488644863 156 151 145
0.0878464335 0.1783706096 -0.0496993681 154 149 143
0.0855789081 0.1757848888 -0.0513619358 156 151 145
0.0912021298 0.1816302331 -0.0465044509 155 152 145
0.0921504277 0.1826023410 -0.0451511101 156 151 145
0.0917991718 0.1822249237 -0.0461916392 157 154 149
0.0904962667 0.1808962400 -0.0478354128 157 154 149
0.0924011713 0.1828612317 -0.0447356980 158 155 148
0.0903007596 0.1807401894 -0.0467348981 157 152 146
0.0926714414 0.1830740195 -0.0463483889 155 152 145
0.0928085803 0.1831249800 -0.0489394312 157 154 149
0.0914835094 0.1819438662 -0.0453196537 156 151 145
0.0934125393 0.1838720899 -0.0440978039 157 154 147
0.0932597738 0.1835921180 -0.0481519945 157 154 149
0.0933107490 0.1836595191 -0.0476082880 157 154 149
0.0919916219 0.1823914724 -0.0468726356 156 153 148
0.0918297656 0.1822840734 -0.0452839291 155 150 144
0.0912608145 0.1817275933 -0.0452639132 157 152 146
0.0793007263 0.1726584426 -0.0587209331 167 163 160
0.0784594016 0.1722098825 -0.0594975322 169 166 161
0.0794978038 0.1726788738 -0.0594172172 170 167 162
0.0816732552 0.1739333301 -0.0564276817 158 153 149
0.0796913081 0.1727856118 -0.0592015657 167 163 160
0.0823488749 0.1741213204 -0.0575909172 157 153 150
0.0837404093 0.1746895561 -0.0581083725 160 155 151
0.0830752821 0.1744264479 -0.0577728712 158 153 149
0.0832865054 0.1743755577 -0.0592743349 162 158 155
0.0827122661 0.1741375424 -0.0590973573 160 156 153
0.0812376938 0.1734554548 -0.0593784645 162 158 155
0.0831864245 0.1743084181 -0.0595096948 161 157 154
0.0799028510 0.1729393710 -0.0585811865 166 162 159
0.0815274383 0.1738034851 -0.0571028520 159 155 152
0.0825819611 0.1744054488 -0.0537522513 156 151 147
0.0824198921 0.1743509187 -0.0537061254 156 151 147
0.0845580143 0.1750960627 -0.0522430589 157 152 148
0.0845819412 0.1750568811 -0.0560502268 161 153 150
0.0834269510 0.1746988086 -0.0532643639 157 152 148
0.0826197852 0.1744010825 -0.0551383119 160 155 151
0.0851372752 0.1752662771 -0.0543941179 159 154 148
0.0839543790 0.1748348893 -0.0567438819 160 155 151
0.0829444013 0.1745136870 -0.0549584671 159 154 150
0.0838018863 0.1748241830 -0.0534336120 158 153 149
0.0828360672 0.1744658633 -0.0558427505 160 155 151
0.0779906015 0.1719161249 -0.0631935071 173 169 166
0.0779786493 0.1718233194 -0.0637002327 173 169 166
0.0779765729 0.1718637080 -0.0641013830 171 167 164
0.0778616271 0.1694420786 -0.0605019501 171 167 164
0.0780041517 0.1719472498 -0.0622085122 173 170 165
0.0780003288 0.1716038110 -0.0606320964 172 168 165
0.0778678659 0.1696035773 -0.0608638915 172 168 165
0.0778914443 0.1702175944 -0.0622520520 174 170 167
0.0778852752 0.1699339412 -0.0627681137 174 170 169
0.0778873336 0.1692512308 -0.0635394314 173 169 168
0.0779061825 0.1695315739 -0.0639921635 176 172 171
0.0778721103 0.1684716174 -0.0637336088 177 173 170
0.0778754624 0.1671963409 -0.0651551418 179 176 171
0.0778684840 0.1679792957 -0.0640901507 179 175 172
