0.2684721396 0.0305114902 0.0217842720 163 151 137
0.2692154973 0.0318677190 0.0231251838 168 156 140
0.2688849473 0.0317938774 0.0214719923 156 145 127
0.2673067532 0.0292015049 0.0180520217 213 203 193
0.2766229009 0.0419634942 0.0251003655 162 147 128
0.2748931648 0.0393912413 0.0264698030 162 149 132
0.2743563113 0.0393119013 0.0258810478 160 147 130
0.2751312395 0.0388035908 0.0276090822 164 152 136
0.2771890713 0.0406607959 0.0276760344 161 149 133
0.2737427427 0.0374880718 0.0276518796 172 163 148
0.2760291301 0.0384500092 0.0292794237 173 163 151
0.2769139478 0.0391996089 0.0293772353 176 164 150
0.2745552961 0.0382955772 0.0275737360 169 157 141
0.2749352650 0.0363616258 0.0307964592 210 203 184
0.2786016772 0.0419939126 0.0276778790 160 147 130
0.2780363896 0.0387398506 0.0315553960 169 156 140
0.2786643190 0.0400348138 0.0305612263 166 153 137
0.2792317471 0.0423598253 0.0280135120 162 149 132
0.2777375520 0.0379744074 0.0322415609 175 163 147
0.2773108010 0.0394041245 0.0296183228 177 163 150
0.2809968595 0.0423782466 0.0303915125 164 151 135
0.2786513900 0.0409753546 0.0292003176 172 159 143
0.2857899349 0.0431941069 0.0306661036 162 149 133
0.2821983922 0.0454214374 0.0249913807 153 136 118
0.2827271441 0.0439067556 0.0284221362 191 181 169
0.2821278611 0.0446444293 0.0266748111 157 144 127
0.2828660704 0.0439227478 0.0284182572 191 181 169
0.2841978042 0.0429337873 0.0308790471 157 144 127
0.2855607480 0.0424968310 0.0321396605 159 143 127
0.2692983534 0.0298529472 0.0259614915 179 171 160
0.2691397101 0.0295356080 0.0258556339 181 173 162
0.2714834866 0.0315387492 0.0293082123 226 222 210
0.2718811026 0.0290873359 0.0318571798 234 233 229
0.2701821641 0.0296100002 0.0279655878 212 208 197
0.2702031356 0.0309615646 0.0270584518 200 194 182
0.2716864416 0.0323943547 0.0291273873 219 215 203
0.2701273785 0.0293527998 0.0280328546 214 210 199
0.2715958256 0.0294344622 0.0310212982 233 234 228
0.2720362003 0.0286149182 0.0324701484 232 231 227
0.2753281933 0.0355558599 0.0321947896 204 197 179
0.2747739035 0.0359107468 0.0311178592 208 201 183
0.2728987915 0.0335425427 0.0301058659 223 220 205
0.2739211655 0.0345536376 0.0308641720 212 206 190
0.2728197708 0.0360098338 0.0281705584 195 187 174
0.2727474269 0.0310506071 0.0317204799 237 237 235
0.2737794265 0.0334079556 0.0315003806 225 223 210
0.2793846412 0.0357320802 0.0352272096 225 224 220
0.2807710360 0.0402434492 0.0325908734 156 143 127
0.2813102536 0.0398143596 0.0332805004 154 141 124
0.2761320896 0.0358036442 0.0330438869 199 192 176
0.2804277393 0.0367334077 0.0351229845 217 214 205
0.2793298240 0.0390256585 0.0326047382 159 146 129
0.2877215600 0.0400132133 0.0343142481 172 161 143
0.2848841401 0.0398347772 0.0339411777 159 142 124
0.2868443831 0.0405814457 0.0337668715 164 147 129
0.2891566340 0.0416678640 0.0334187267 172 159 143
0.2889726008 0.0400084822 0.0345365415 175 163 147
0.2848584362 0.0398996085 0.0338917466 159 142 124
0.2864390969 0.0402075745 0.0339550308 163 146 128
0.2861252305 0.0401815731 0.0339181037 162 145 127
0.2858753579 0.0415444655 0.0329298085 157 141 125
0.2743978401 0.0280827342 0.0344937753 230 229 224
0.2731555446 0.0291797658 0.0332709933 232 232 230
0.2754783379 0.0300891365 0.0345530132 233 236 229
0.2751804910 0.0340688173 0.0329990687 194 188 174
0.2741071012 0.0285497165 0.0341362850 231 230 226
0.2749785269 0.0335297910 0.0330436267 212 208 199
0.2782010375 0.0301975707 0.0363805592 232 233 228
0.2774899390 0.0279044855 0.0366715114 229 228 223
0.2759005522 0.0327212302 0.0339492524 231 230 225
0.2847500421 0.0370033320 0.0359165199 216 216 206
0.2819356568 0.0370672105 0.0354310863 220 217 208
0.2834255294 0.0367778477 0.0358694823 220 217 210
0.2881151101 0.0350755365 0.0378112984 199 196 187
0.2817293059 0.0373037349 0.0352309055 217 213 202
0.2826420441 0.0401598550 0.0333460089 158 142 126
0.2849646688 0.0373891054 0.0356762121 215 215 205
0.2862854870 0.0353584552 0.0373243506 207 204 197
0.2796847024 0.0322912374 0.0367118712 229 231 226
0.2798540586 0.0279617265 0.0382727896 229 230 225
0.2774151344 0.0346547389 0.0343419721 231 231 223
0.2775654155 0.0353424002 0.0342175716 223 221 209
0.2780871340 0.0353817798 0.0345681663 227 228 220
0.2791230194 0.0321826892 0.0363564661 232 233 227
0.2804432961 0.0311939944 0.0376049455 228 230 225
0.2830717293 0.0341074109 0.0372907292 215 215 207
0.2865512584 0.0340829018 0.0379828399 209 206 197
0.2820070028 0.0310679889 0.0379488101 227 229 224
0.2812909850 0.0347134339 0.0367670902 221 220 215
0.2880029931 0.0342572817 0.0382189004 196 193 184
0.2806544370 0.0296615998 0.0380840017 228 230 225
0.2831564946 0.0319232711 0.0379309689 224 225 219
0.3004826453 0.0382431703 -0.0749565431 120 107 91
0.2984488315 0.0381075195 -0.0734608286 164 151 134
0.2976064596 0.0381440962 -0.0729179017 168 155 136
0.3020175711 0.0376766611 -0.0755332061 111 98 82
0.3037869163 0.0368682502 -0.0760696726 128 115 98
0.3032183309 0.0375039654 -0.0762076029 134 118 102
0.3070755477 0.0280467916 -0.0763966173 110 101 92
0.3065729362 0.0264069112 -0.0763672115 99 92 86
0.3051417878 0.0293013467 -0.0763702419 97 88 79
0.3055004074 0.0288964123 -0.0763731572 96 87 80
0.3058624265 0.0272617644 -0.0763620388 95 88 80
0.3064483437 0.0295503496 -0.0764006416 110 101 92
0.3102517543 0.0257880738 -0.0764376666 109 99 90
0.3048941069 0.0337039005 -0.0759384376 127 114 98
0.3037233568 0.0341403761 -0.0747116431 113 100 84
0.2925648870 0.0414411390 -0.0743801560 165 150 131
0.2966377055 0.0402892445 -0.0744976388 176 163 144
0.2965465629 0.0417116292 -0.0757429923 140 127 108
0.2972693347 0.0403878792 -0.0747636265 163 150 131
0.2930232628 0.0416412040 -0.0746879965 147 135 113
0.3021277686 0.0359948784 -0.0744542455 118 105 89
0.3045272089 0.0356425426 -0.0756453170 121 106 85
0.3057050909 0.0353770651 -0.0761880996 131 116 97
0.3041138573 0.0352128194 -0.0752179555 112 99 82
0.3046196947 0.0302302692 -0.0759370758 107 97 87
0.3030190946 0.0258949055 -0.0736735547 137 127 118
0.3038689648 0.0251300286 -0.0753782689 122 112 103
0.3033097419 0.0266637746 -0.0740875923 134 124 115
0.3027531870 0.0322615584 -0.0740485217 149 135 122
0.3038645736 0.0303773168 -0.0748494648 145 132 123
0.3044275736 0.0315752766 -0.0755543935 129 117 105
0.3029383341 0.0288902350 -0.0737569719 142 129 120
0.3026935544 0.0327956610 -0.0740657332 149 135 122
0.2948403836 0.0394368579 -0.0697688452 174 162 138
0.2923350024 0.0407969950 -0.0703719712 204 192 170
0.2962056465 0.0387528381 -0.0721573838 167 154 135
0.2921308992 0.0409623515 -0.0730141873 181 166 145
0.2940505386 0.0398323350 -0.0683751885 182 170 146
0.2917737743 0.0409963959 -0.0655025471 169 157 133
0.2932506741 0.0402587435 -0.0681956934 190 178 154
0.2949403132 0.0394439836 -0.0726622724 187 175 153
0.2898328548 0.0420160731 -0.0643525976 177 162 139
0.2906774086 0.0415813261 -0.0652782173 173 158 135
0.2906084541 0.0417822811 -0.0730676747 187 172 151
0.2896637078 0.0420804888 -0.0630903053 177 162 141
0.2983038869 0.0370541648 -0.0704294122 181 168 149
0.2986449375 0.0366513949 -0.0686169137 153 140 123
0.2991021435 0.0360650532 -0.0701903192 177 164 145
0.2977751293 0.0377126226 -0.0703048078 179 166 147
0.2993328999 0.0357693888 -0.0709613063 181 168 151
0.2991076883 0.0360785028 -0.0684353663 150 137 121
0.3018168087 0.0284941730 -0.0698182002 141 131 119
0.3017883572 0.0289072550 -0.0704552537 139 129 117
0.3011170166 0.0327710784 -0.0682419680 153 139 126
0.3015467935 0.0310563401 -0.0718830672 173 161 149
0.3015916631 0.0310150830 -0.0726670278 169 157 145
0.3016855286 0.0290334124 -0.0687512847 140 130 118
0.3018579379 0.0291813545 -0.0726619541 139 129 117
0.3017659908 0.0286976852 -0.0693898872 141 131 119
0.2959541246 0.0388729247 -0.0693319693 172 160 138
0.2934485514 0.0401544756 -0.0652445831 160 148 124
0.2955416692 0.0391168161 -0.0656238785 160 148 124
0.2930652090 0.0403633746 -0.0634368826 169 157 133
0.2935866033 0.0401046927 -0.0635499501 168 156 132
0.2934541710 0.0401719925 -0.0633741670 170 158 134
0.2952638107 0.0392137862 -0.0693322818 172 160 136
0.2960450177 0.0388700197 -0.0654627338 158 146 124
0.2980534060 0.0373926948 -0.0655989118 156 141 122
0.2981555243 0.0372272816 -0.0653317207 156 141 122
0.2989188352 0.0361741065 -0.0658042049 149 133 117
0.3001178591 0.0347939479 -0.0702416541 180 166 153
0.2994478541 0.0355340193 -0.0673422318 148 135 119
0.2989464483 0.0360719913 -0.0649585504 146 133 117
0.3010781932 0.0310695609 -0.0645517877 145 136 121
0.3017831056 0.0283764971 -0.0690728113 141 131 119
0.3012314880 0.0295997961 -0.0647367241 141 131 119
0.3017312118 0.0275062424 -0.0677752660 140 130 118
0.3013244542 0.0305614903 -0.0665219208 141 129 115
0.3014936995 0.0264490473 -0.0644781976 143 133 121
0.3017469825 0.0281511238 -0.0685130510 139 129 117
0.3018553408 0.0263225353 -0.0679308138 137 127 115
0.2914049277 0.0414384298 -0.0606980201 180 165 144
0.2928851882 0.0417034349 -0.0542186040 163 148 125
0.2966610261 0.0395059615 -0.0578401691 169 156 137
0.2939947596 0.0405672208 -0.0587220661 179 164 143
0.2968929931 0.0388687245 -0.0615844440 158 145 128
0.2973785768 0.0383161906 -0.0639430110 154 141 122
0.2952380656 0.0395604640 -0.0619002485 166 153 134
0.2967019422 0.0394401750 -0.0581737441 169 156 137
0.2955001696 0.0406476593 -0.0534583575 177 162 141
0.2944130967 0.0410463063 -0.0540566339 176 161 140
0.2930058737 0.0404359157 -0.0627299544 172 160 136
0.2905507025 0.0420403788 -0.0591437854 177 162 141
0.2939817747 0.0403316801 -0.0604142646 178 163 142
0.2957542550 0.0407855941 -0.0516979141 172 157 136
0.2971312609 0.0394840516 -0.0565258054 167 155 133
0.2949792824 0.0396739079 -0.0619126371 168 156 134
0.2933383784 0.0408643730 -0.0586874927 181 166 145
0.2961820373 0.0395309191 -0.0591604898 167 154 135
0.2933476872 0.0408105062 -0.0590361581 179 164 143
0.2965877904 0.0393555119 -0.0591237835 165 152 135
0.2951826613 0.0397507467 -0.0607389094 169 156 137
0.2991572244 0.0364106314 -0.0588660839 152 138 125
0.2992203508 0.0359966661 -0.0615018474 149 136 120
0.2999864005 0.0345735023 -0.0640513195 153 139 126
0.2980541881 0.0384655690 -0.0551483151 174 161 142
0.2986261242 0.0365087366 -0.0643633195 151 135 119
0.2995942034 0.0355535272 -0.0606906364 149 135 122
0.2978364246 0.0386487392 -0.0562336228 166 153 134
0.2993496220 0.0363717897 -0.0569016368 151 139 123
0.2970741916 0.0410917821 -0.0453005475 197 184 165
0.2982161882 0.0375989128 -0.0603124607 157 143 130
0.2974249390 0.0391390380 -0.0571056235 167 155 133
0.2981251970 0.0387894439 -0.0516581483 197 182 163
0.2976775579 0.0382279987 -0.0615578161 153 140 124
0.2972213976 0.0404099122 -0.0491293884 167 154 135
0.2971865618 0.0402540216 -0.0508171023 168 153 134
0.3021359161 0.0243310009 -0.0712132985 136 128 115
0.3013726993 0.0235977356 -0.0652254015 141 131 119
0.3020918422 0.0243981111 -0.0706174512 136 128 115
0.3001582420 0.0183228078 -0.0650827224 141 132 123
0.3022020719 0.0250602054 -0.0702115920 135 127 114
0.3019593741 0.0247838524 -0.0684061292 140 130 118
0.3006196840 0.0205135352 -0.0647109007 139 131 120
0.3018602867 0.0242046537 -0.0687344798 139 129 117
0.3017328844 0.0262900085 -0.0601008330 153 143 131
0.3015412017 0.0274801680 -0.0614108918 151 141 129
0.3015554780 0.0272653951 -0.0614868647 151 141 129
0.3014552186 0.0294235510 -0.0600591880 147 137 125
0.3009511865 0.0325967755 -0.0634438975 157 145 131
0.3017065931 0.0263931141 -0.0603632655 154 145 130
0.3013865703 0.0291860888 -0.0614415556 149 139 127
0.3011358663 0.0307544473 -0.0631388490 151 142 127
0.3015202537 0.0273734817 -0.0618798109 152 142 130
0.3018972239 0.0255218689 -0.0586305866 150 140 128
0.3017955804 0.0258235798 -0.0597784860 152 142 130
0.3012706279 0.0285584347 -0.0640880549 145 135 123
0.3017233231 0.0297738574 -0.0554544153 148 136 122
0.3019876747 0.0259517539 -0.0566481947 150 140 130
0.3019048041 0.0279816870 -0.0551295427 149 137 125
0.3018402468 0.0270675182 -0.0573800848 148 138 128
0.3021366419 0.0273301452 -0.0524609108 165 155 143
0.3020816037 0.0279887423 -0.0524010953 175 163 151
0.3020745236 0.0282131632 -0.0522011878 175 163 151
0.3017183063 0.0292938026 -0.0561920708 146 134 122
0.2900093718 0.0438326586 -0.0409352720 176 161 142
0.2899950900 0.0434001331 -0.0458779378 177 165 141
0.2896380132 0.0422600244 -0.0600490079 178 163 142
0.2932651033 0.0421485137 -0.0483369015 211 196 175
0.2944052957 0.0421033459 -0.0447695281 184 171 152
0.2904746732 0.0428697446 -0.0501609365 189 174 153
0.2906708624 0.0435345286 -0.0419409383 177 165 143
0.2929958226 0.0428977033 -0.0408272022 171 160 140
0.2925525950 0.0424352986 -0.0476420186 208 193 172
0.2920593130 0.0420243959 -0.0540534128 170 155 132
0.2953745917 0.0416511624 -0.0464164947 212 199 180
0.2916648035 0.0428962349 -0.0456045419 188 176 152
0.2897918390 0.0442383082 -0.0371256989 175 160 139
0.2963489313 0.0416367709 -0.0430942774 150 137 120
0.2928539364 0.0423741535 -0.0472557050 208 193 172
0.2907822017 0.0423705299 -0.0547067781 181 166 145
0.2934286728 0.0419121729 -0.0504247152 196 181 162
0.2953781362 0.0419505915 -0.0430174671 152 139 120
0.2904573530 0.0425438693 -0.0539083264 191 176 155
0.2913567517 0.0424018344 -0.0522977185 194 179 160
0.2901419079 0.0429154206 -0.0508345918 188 173 154
0.2933464322 0.0421744295 -0.0477529170 213 198 177
0.2988445289 0.0378018153 -0.0513072455 190 177 158
0.3009933561 0.0334183708 -0.0617197977 149 137 123
0.3008643690 0.0354221171 -0.0475459309 140 126 113
0.3014981952 0.0333565543 -0.0566311426 144 132 118
0.3017244590 0.0339931635 -0.0491794960 162 148 135
0.3008113747 0.0335020783 -0.0630760059 155 143 129
0.2995429998 0.0374462903 -0.0463684727 153 140 124
0.3020528992 0.0337826964 -0.0471941099 135 121 108
0.3000832121 0.0353892630 -0.0564200750 145 133 119
0.3016234389 0.0341226188 -0.0492863723 162 148 135
0.2987726483 0.0382590444 -0.0485412688 170 157 138
0.3006801223 0.0349339316 -0.0533786917 156 144 130
0.3013293176 0.0348733537 -0.0466877293 137 123 110
0.3011417918 0.0338058859 -0.0570657445 145 133 119
0.2980366478 0.0397884752 -0.0447565344 165 152 135
0.3008731868 0.0333568992 -0.0635241006 152 140 126
0.3017880240 0.0333544860 -0.0534495955 159 147 135
0.3018861328 0.0337270314 -0.0494673153 159 145 134
0.3018978316 0.0338223923 -0.0485959638 148 134 121
0.3009810507 0.0354056327 -0.0463869083 138 124 111
0.3004589280 0.0176744253 -0.0555881336 147 137 127
0.3009350425 0.0209283488 -0.0597837975 145 135 125
0.3012051371 0.0215655748 -0.0572677089 158 148 138
0.3006134873 0.0191042786 -0.0584633343 142 134 123
0.3010268052 0.0177830792 -0.0453109133 145 135 123
0.3013782330 0.0206221118 -0.0501790803 145 135 123
0.3007062099 0.0177161402 -0.0510902441 145 135 123
0.3012709519 0.0174143154 -0.0392093977 155 145 133
0.3013826396 0.0185217222 -0.0415875121 146 136 124
0.3014991932 0.0233083921 -0.0587780083 152 142 130
0.3011967144 0.0172550181 -0.0399651652 154 144 132
0.3010145286 0.0212650097 -0.0596474519 147 137 127
0.3013050507 0.0207341726 -0.0520141700 153 143 133
0.3011266195 0.0225122154 -0.0625842634 148 138 126
0.3008343016 0.0179211698 -0.0495033580 144 134 122
0.3013902880 0.0194975618 -0.0453961639 147 137 125
0.3003226745 0.0181983380 -0.0602819035 144 136 125
0.3010450251 0.0225124498 -0.0641251172 143 133 121
0.3009653355 0.0205746161 -0.0577791636 151 141 132
0.3007638829 0.0202852111 -0.0604087703 144 134 124
0.3009051662 0.0202283682 -0.0575121142 150 140 131
0.3014542663 0.0220848124 -0.0546693381 164 153 149
0.3012855215 0.0232919518 -0.0627439679 146 136 124
0.3007201317 0.0198519660 -0.0594794532 144 134 124
0.3014607161 0.0239257704 -0.0620050933 145 135 123
0.3004995828 0.0171035956 -0.0525085121 147 137 125
0.3008493762 0.0195032902 -0.0556278244 152 142 132
0.3018454256 0.0225942728 -0.0505624248 159 149 139
0.3014600252 0.0182648592 -0.0392284268 156 148 137
0.3021657274 0.0244484386 -0.0530775152 152 143 134
0.3014274528 0.0174413804 -0.0364589514 155 146 137
0.3018342880 0.0227383400 -0.0513005959 165 155 146
0.3021241684 0.0231451995 -0.0485440275 149 139 129
0.3016757420 0.0188024097 -0.0381066254 157 149 138
0.3019538557 0.0230934580 -0.0509051196 163 153 143
0.3016944918 0.0216249693 -0.0489988596 145 135 123
0.3024179350 0.0226960647 -0.0423399641 142 132 122
0.3019154145 0.0233624286 -0.0525491523 163 152 146
0.3024605809 0.0236985016 -0.0456661801 146 136 124
0.3018173293 0.0239832672 -0.0564848543 152 143 134
0.3014318386 0.0175227169 -0.0367148917 155 146 137
0.3021966457 0.0242952882 -0.0520053650 156 145 139
0.3017599819 0.0209558015 -0.0453628976 143 133 121
0.3021321644 0.0213629684 -0.0413675764 142 132 122
0.3026420627 0.0235830487 -0.0424748767 143 133 123
0.3027982241 0.0246652141 -0.0444065113 141 131 119
0.3024499164 0.0243413907 -0.0483720969 154 144 134
0.3025517099 0.0282028834 -0.0468050997 136 124 112
0.3021989525 0.0281629907 -0.0506270725 159 149 137
0.3023272706 0.0276435147 -0.0493553566 143 133 123
0.3015918402 0.0329984679 -0.0561160603 144 132 118
0.3027574541 0.0267379004 -0.0449063701 135 123 111
0.3019013643 0.0302435589 -0.0533819146 173 159 146
0.3022629296 0.0282102185 -0.0499250296 144 134 122
0.3026730117 0.0263079254 -0.0459146091 142 130 118
0.3025261675 0.0278659748 -0.0471559988 139 127 115
0.3010652231 0.0325512159 -0.0619078035 146 137 122
0.3015071071 0.0314176122 -0.0573829582 147 135 121
0.3016602760 0.0312617163 -0.0557618979 145 133 121
0.3021187921 0.0298283142 -0.0511238293 168 156 144
0.3026449827 0.0296132175 -0.0454837506 131 119 107
0.3020813542 0.0319376825 -0.0510601935 164 150 139
0.3027341200 0.0289140461 -0.0446754536 133 121 109
0.3014420783 0.0309750764 -0.0581841362 146 134 122
0.2937937823 0.0429244783 -0.0355957129 172 159 142
0.2944937012 0.0429015437 -0.0310133534 177 166 146
0.2943150557 0.0426578224 -0.0372422395 169 156 139
0.2970763961 0.0421064642 -0.0285064928 189 174 155
0.2924967869 0.0433917196 -0.0354769076 176 163 144
0.2968564650 0.0415752972 -0.0408600942 156 143 126
0.2967857091 0.0418178886 -0.0364526061 162 149 133
0.2969726064 0.0417260938 -0.0369656765 162 149 132
0.2949323721 0.0424867176 -0.0362591995 168 155 138
0.2958434159 0.0421875179 -0.0357547141 165 152 135
0.2957990412 0.0423695421 -0.0323847816 171 158 141
0.2972973442 0.0418436228 -0.0322414086 171 155 139
0.2943563092 0.0428715683 -0.0326117691 177 164 147
0.2945314055 0.0426675651 -0.0354845892 171 158 141
0.2941850457 0.0425735640 -0.0398878275 170 157 140
0.2957800019 0.0424492014 -0.0309072546 181 170 150
0.2916409960 0.0437340396 -0.0347088303 177 164 145
0.3013019475 0.0359438751 -0.0386830086 148 134 121
0.2984157373 0.0397533296 -0.0408604542 148 135 119
0.3019717612 0.0346650522 -0.0412384585 149 135 124
0.3003556270 0.0365915180 -0.0440599486 151 137 124
0.3029514995 0.0344886755 -0.0318402303 145 133 119
0.3011724304 0.0357724702 -0.0414352310 146 132 119
0.3010783680 0.0358186125 -0.0421110553 151 137 124
0.3020565275 0.0349790664 -0.0378722225 147 135 123
0.3015032647 0.0348729981 -0.0447741504 144 130 117
0.3007244068 0.0368833701 -0.0377446816 149 135 122
0.2988572223 0.0389769507 -0.0420290611 150 137 121
0.3007937564 0.0365447281 -0.0396083810 149 135 122
0.3016675758 0.0352547371 -0.0400087185 147 133 120
0.3028243578 0.0332762510 -0.0426381519 151 137 124
0.3016818730 0.0353146848 -0.0393867955 149 135 122
0.3001863210 0.0370264196 -0.0425482437 155 142 126
0.3021567123 0.0351744725 -0.0352562166 148 134 121
0.3030748685 0.0339527033 -0.0346403874 150 138 126
0.3024336897 0.0344746285 -0.0376390749 147 135 123
0.3027680699 0.0336657344 -0.0402367130 150 136 123
0.3040408246 0.0246211389 -0.0289103249 140 130 120
0.3038782880 0.0238768524 -0.0283681003 138 128 118
0.3022613853 0.0212633965 -0.0391413395 155 145 135
0.3040057868 0.0246889815 -0.0295638509 142 132 122
0.3023243935 0.0216871543 -0.0398079075 145 135 125
0.3031601584 0.0233795167 -0.0353917312 151 141 131
0.3036886139 0.0246258887 -0.0331943055 146 136 126
0.3028032859 0.0222248889 -0.0358195947 154 144 134
0.3017133981 0.0183446661 -0.0359316530 153 145 134
0.3033825920 0.0233886683 -0.0327272523 144 134 124
0.3025598358 0.0207878122 -0.0339198546 149 139 129
0.3029392330 0.0226391932 -0.0355704138 151 141 131
0.3025824038 0.0228896147 -0.0407394407 144 134 124
0.3032057407 0.0228366581 -0.0330073714 146 136 126
0.3031792961 0.0234399337 -0.0353637210 149 139 129
0.3030714312 0.0269251273 -0.0415680400 151 141 129
0.3036402067 0.0297151511 -0.0351144704 147 138 123
0.3026550363 0.0323264506 -0.0448075472 134 120 107
0.3026589656 0.0326614633 -0.0446999723 134 120 107
0.3036459303 0.0324150188 -0.0345164932 147 137 125
0.3031258088 0.0264967329 -0.0410897302 154 144 132
0.3030276862 0.0297695704 -0.0414540997 154 142 130
0.3032843656 0.0303466451 -0.0386777715 152 140 128
0.3027423680 0.0301475613 -0.0443368088 133 121 109
0.3029688597 0.0292803936 -0.0421615936 151 139 127
0.3029416855 0.0289633430 -0.0425065825 147 135 123
0.3031855989 0.0305602451 -0.0396591496 154 142 130
0.3034416592 0.0302726522 -0.0370617461 153 141 127
0.3028593636 0.0279602509 -0.0435602004 135 123 111
0.3028578517 0.0329900947 -0.0425723991 153 139 126
0.3032012952 0.0329256287 -0.0390245088 147 133 120
0.3004942972 0.0381173213 -0.0288399992 155 141 128
0.2988768527 0.0402936220 -0.0289210729 174 158 143
0.2996890069 0.0391733611 -0.0291643021 159 146 130
0.2978457576 0.0406803462 -0.0393070047 155 142 126
0.3012885927 0.0370835502 -0.0284390475 151 139 125
0.3035216274 0.0340175574 -0.0289612869 144 135 120
0.2989303955 0.0393256604 -0.0381711822 150 136 123
0.3016279765 0.0365025264 -0.0297065655 150 138 124
0.2998610709 0.0389082577 -0.0295025662 160 146 133
0.2973172264 0.0413812315 -0.0394394891 156 143 127
0.2972699960 0.0411689516 -0.0422905431 153 140 124
0.2977723916 0.0413891537 -0.0330098237 166 150 135
0.3009803987 0.0374181516 -0.0292815314 151 139 125
0.3030778499 0.0344656957 -0.0305220740 141 132 117
0.2986605940 0.0408545930 -0.0261435225 184 169 150
0.2982522842 0.0401378257 -0.0392404798 152 138 125
0.2995290093 0.0391142356 -0.0320062984 153 141 127
0.2981886225 0.0403094141 -0.0383562053 154 141 125
0.2982521082 0.0412252433 -0.0280123965 190 175 156
0.2986595777 0.0399821917 -0.0351676063 152 139 123
0.3017628305 0.0361931914 -0.0310205801 145 133 119
0.2990068690 0.0396710824 -0.0335372439 149 137 123
0.2973072886 0.0410698949 -0.0427934805 151 138 122
0.2954047490 0.0430351427 -0.0213319477 163 147 131
0.2945261501 0.0432017106 -0.0243962637 166 151 132
0.2935886564 0.0439154960 -0.0161318873 168 152 136
0.2926160208 0.0438735957 -0.0243933337 163 148 129
0.2898551275 0.0446505360 -0.0285676474 184 167 147
0.2923732569 0.0439067983 -0.0255159039 173 156 136
0.2904005558 0.0449134336 -0.0187837144 172 157 138
0.2944633119 0.0433459676 -0.0217678128 166 151 132
0.2904741489 0.0449271624 -0.0179314387 173 158 139
0.2929725633 0.0438825026 -0.0215037462 172 155 139
0.2948332282 0.0433547855 -0.0187789432 170 154 138
0.2916211455 0.0444133591 -0.0203075505 172 155 137
0.2903944181 0.0442382382 -0.0333581725 182 169 150
0.2969678964 0.0423555469 -0.0241263824 202 187 168
0.2914990357 0.0445217427 -0.0188994841 172 156 140
0.2970303235 0.0423603280 -0.0235511252 182 167 148
0.2936586095 0.0438433660 -0.0171545593 167 151 135
0.2919718658 0.0444045212 -0.0178438287 171 156 137
0.2917052010 0.0444474356 -0.0189382903 172 156 140
0.2918406936 0.0445831357 -0.0149931985 171 155 139
0.2906080814 0.0449749476 -0.0158897953 173 158 139
0.2958745406 0.0427998205 -0.0228404269 164 149 130
0.2922974141 0.0442006654 -0.0197667364 171 155 139
0.2961672388 0.0425650016 -0.0256781351 203 188 169
0.2936861884 0.0434335523 -0.0257637309 165 150 129
0.2904150555 0.0452270401 -0.0119261993 171 158 141
0.2949397024 0.0432966988 -0.0192230943 165 152 136
0.2901423904 0.0449375419 -0.0202185067 171 154 136
0.3040038637 0.0312585288 -0.0308309822 144 135 120
0.3038612776 0.0281912655 -0.0321718229 142 132 120
0.3032138521 0.0255629995 -0.0399771133 157 147 137
0.3039105032 0.0311034622 -0.0319905581 143 134 119
0.3037990212 0.0268590620 -0.0327583349 143 133 123
0.3033440130 0.0261395517 -0.0384152266 151 141 131
0.3040288613 0.0313519096 -0.0305283841 146 137 122
0.3040826668 0.0301754036 -0.0296677254 149 140 125
0.3038779493 0.0281669349 -0.0319568484 141 131 121
0.3031957467 0.0259430160 -0.0402643111 159 149 139
0.3040755355 0.0305366301 -0.0298129931 150 141 126
0.3030702897 0.0252713736 -0.0417521360 146 136 124
0.3037363442 0.0265054380 -0.0334988884 144 134 124
0.3039303463 0.0311509345 -0.0317463037 142 133 118
0.3036051243 0.0249674954 -0.0349280955 146 136 126
0.3030065253 0.0214666822 -0.0295040197 142 132 120
0.3017057063 0.0181559893 -0.0308622845 146 137 128
0.3020616196 0.0191113605 -0.0297161591 144 135 126
0.3023322572 0.0197268621 -0.0305793720 144 135 120
0.3019747559 0.0190507037 -0.0272990318 150 141 134
0.3015662142 0.0179474381 -0.0287182006 147 140 132
0.3015354777 0.0179869592 -0.0269095384 150 141 136
0.3025791539 0.0206198152 -0.0261853815 146 137 128
0.3016335628 0.0178027219 -0.0335898522 151 141 131
0.3037301475 0.0234803921 -0.0260590790 139 129 117
0.3013664211 0.0177974603 -0.0233221832 152 145 139
0.3029255910 0.0212546527 -0.0296830294 142 132 120
0.3026944846 0.0210202947 -0.0243929548 149 142 136
0.3012040611 0.0174549252 -0.0223867000 150 143 137
0.3040623755 0.0334060152 -0.0269861109 142 133 118
0.2998390966 0.0393611465 -0.0243917235 163 150 134
0.3032605218 0.0349067385 -0.0190906829 146 132 119
0.3035783166 0.0341808442 -0.0248428841 135 125 113
0.3041649042 0.0338400172 -0.0154747471 147 133 120
0.3034502098 0.0346993748 -0.0180047082 146 132 119
0.3028275352 0.0355258273 -0.0186537331 146 132 119
0.3042315288 0.0334164011 -0.0221107073 135 125 113
0.3024655976 0.0356921459 -0.0253138817 135 126 111
0.3009176014 0.0378576459 -0.0247087737 160 146 133
0.3005748224 0.0383559639 -0.0241986361 158 144 131
0.3044001675 0.0334722338 -0.0163403481 146 132 119
0.2998901867 0.0393294890 -0.0236152439 153 139 126
0.3030164761 0.0351838331 -0.0202816479 144 130 117
0.3029179703 0.0349610051 -0.0274574825 142 132 120
0.3035959052 0.0341399211 -0.0251762061 135 125 113
0.3030507479 0.0349381657 -0.0242505026 134 124 112
0.2937875593 0.0439056060 -0.0145010686 169 153 137
0.2961761436 0.0431202654 -0.0117395739 163 147 132
0.2982338760 0.0422503744 -0.0145946693 158 144 131
0.2981425636 0.0421153124 -0.0191696021 151 138 122
0.2958436681 0.0432625364 -0.0112317135 162 149 133
0.2952162125 0.0433827481 -0.0142878315 167 151 136
0.2940404042 0.0437421674 -0.0163828892 166 150 134
0.2940674352 0.0439451345 -0.0106160566 171 158 142
0.2969558876 0.0428305129 -0.0117418305 155 141 128
0.2913329207 0.0449504912 -0.0109002050 171 155 139
0.2972391844 0.0423949239 -0.0206853559 160 147 131
0.2955956720 0.0432450913 -0.0141982290 162 146 131
0.2945170701 0.0437248162 -0.0120585757 168 152 136
0.2935946256 0.0439686593 -0.0147344456 169 153 137
0.2980904858 0.0421802849 -0.0179343618 154 141 125
0.2944358200 0.0435701480 -0.0170631112 167 151 135
0.3044515299 0.0320172488 -0.0223282606 138 126 112
0.3043293480 0.0316706698 -0.0253199520 134 125 110
0.3042576418 0.0321410458 -0.0271315972 149 140 125
0.3042988168 0.0303538522 -0.0259654934 135 126 111
0.3042604189 0.0262790660 -0.0265767738 137 125 113
0.3042925656 0.0330974839 -0.0263475766 144 135 120
0.3044217899 0.0289362147 -0.0228079274 139 129 117
0.3044847216 0.0313313434 -0.0214508503 138 129 114
0.3044130719 0.0301808600 -0.0231266710 136 124 110
0.3044491026 0.0318229827 -0.0223721533 138 126 112
0.3042578780 0.0277571866 -0.0267621764 137 125 111
0.3042483041 0.0327638969 -0.0274140897 145 136 121
0.3043545271 0.0294854350 -0.0245162675 135 123 107
0.3038412623 0.0238746970 -0.0174663813 174 169 176
0.3036702267 0.0236278307 -0.0055949564 149 140 131
0.3019507494 0.0193481527 -0.0178859013 152 147 143
0.3032430618 0.0225687573 -0.0083470765 154 143 141
0.3038393430 0.0237663297 -0.0250649432 142 130 118
0.3041382672 0.0245112590 -0.0228605245 152 143 134
0.3024862891 0.0205613480 -0.0228245441 152 147 143
0.3021940174 0.0199409511 -0.0170755438 153 147 147
0.3012989368 0.0177635522 -0.0197830540 146 139 131
0.3033291436 0.0225518037 -0.0246606112 146 137 128
0.3036905207 0.0234303994 -0.0236041453 147 138 129
0.3032930496 0.0225972640 -0.0150122612 156 153 160
0.3030696049 0.0221002012 -0.0122837846 165 159 161
0.3024056846 0.0204593709 -0.0161781228 152 148 149
0.3023425727 0.0202808305 -0.0182004379 155 150 154
0.3021396804 0.0197575193 -0.0209924111 155 149 151
0.3028437648 0.0214155483 -0.0228712026 153 145 142
0.3036257887 0.0233992898 -0.0145479417 164 159 165
0.3038545613 0.0240357277 -0.0080042925 148 139 132
0.3041360714 0.0247418460 -0.0055925288 142 132 123
0.3022738797 0.0201514530 -0.0156458648 149 143 143
0.3040617999 0.0244659441 -0.0127896762 163 158 155
0.3019483988 0.0192996776 -0.0210236695 153 148 145
0.3041486426 0.0248269599 -0.0015616120 143 133 121
0.3032942702 0.0225890453 -0.0158277492 159 156 165
0.3034776031 0.0231808911 -0.0045929990 148 139 132
0.3028165964 0.0214712442 -0.0140361914 156 151 157
0.3029339891 0.0218275511 -0.0085019748 156 146 144
0.3011905698 0.0379835939 -0.0170233327 139 125 112
0.2993996038 0.0406869496 -0.0156858092 143 129 116
0.3004973462 0.0394499691 -0.0119168123 144 132 118
0.2991954747 0.0406190196 -0.0196420329 142 129 113
0.3021818213 0.0365303087 -0.0172943570 146 132 119
0.2991097609 0.0413426717 -0.0130850935 149 137 123
0.3025512824 0.0362765422 -0.0142497717 146 132 119
0.3033853629 0.0351218328 -0.0137332734 146 132 119
0.3009354899 0.0382868777 -0.0177259583 139 125 112
0.2988909026 0.0412190663 -0.0178815320 145 131 118
0.3028401446 0.0358060771 -0.0148418398 145 131 118
0.3007952294 0.0389019044 -0.0132146850 146 134 120
0.2986972452 0.0411298385 -0.0219055754 155 142 126
0.2999286369 0.0398151983 -0.0168807545 140 126 113
0.2984877806 0.0418954771 -0.0168383650 155 141 128
0.2998874572 0.0395823799 -0.0200728721 144 130 117
0.2982081801 0.0418024431 -0.0222571755 164 148 132
0.2998487006 0.0401133282 -0.0148820383 144 130 117
0.2970788323 0.0424556507 0.0099114892 160 146 133
0.2942545681 0.0436291220 0.0056328380 167 154 138
0.2954074780 0.0430885158 0.0103694317 162 148 135
0.2974572555 0.0426285179 -0.0055439870 157 143 130
0.2949196103 0.0433282840 0.0078307514 164 151 135
0.2959488250 0.0427651659 0.0159686676 161 147 134
0.2968939408 0.0427989675 -0.0033088750 161 148 132
0.2950660389 0.0435366312 -0.0050184282 163 150 133
0.2934157198 0.0442286599 -0.0078258323 166 153 136
0.2973036555 0.0425824767 -0.0004421181 163 150 134
0.2934493213 0.0439585487 0.0046630028 166 150 134
0.2930429643 0.0443123558 -0.0049341102 174 161 142
0.2971767758 0.0424521748 0.0082526105 160 147 131
0.2972103960 0.0423918624 0.0105538466 160 147 131
0.2962427504 0.0430342106 -0.0025801627 163 150 134
0.2951881128 0.0435235047 -0.0066589881 160 147 131
0.2929439250 0.0444048215 -0.0075758788 167 154 137
0.2945148011 0.0437977675 -0.0074121723 164 151 135
0.2941823771 0.0438221095 -0.0023909895 178 165 148
0.2923052442 0.0444779012 0.0007936041 166 153 136
0.2938765302 0.0438722562 0.0008812448 175 162 145
0.2982187245 0.0421399491 0.0039702593 159 145 132
0.2952058024 0.0435490985 -0.0082318449 162 149 132
0.2985688752 0.0422686877 -0.0088148796 155 141 128
0.2974262550 0.0426782682 -0.0073812425 157 144 128
0.2978413098 0.0421275583 0.0116146244 159 145 132
0.2976000630 0.0423586886 0.0048933372 158 144 131
0.2905008867 0.0453097146 -0.0059269426 171 158 141
0.2942078878 0.0439060628 -0.0069435723 164 151 134
0.2923302728 0.0445842983 -0.0048397832 175 162 143
0.2948965325 0.0434486458 0.0024169587 166 153 137
0.2974811204 0.0423626623 0.0069198983 159 145 132
0.2981155384 0.0423038651 -0.0020635552 162 149 133
0.2980390331 0.0423375542 -0.0022717903 162 149 133
0.2944977921 0.0436137935 0.0018384909 170 157 141
0.2956424051 0.0431303604 0.0039537444 156 143 127
0.3042842696 0.0258009081 -0.0150485436 159 153 155
0.3042674570 0.0253941674 -0.0183624203 152 144 142
0.3044034895 0.0276012574 -0.0145281083 137 127 115
0.3045837405 0.0304328508 -0.0114175496 137 127 115
0.3045627802 0.0301251455 -0.0113221041 137 127 117
0.3047002099 0.0319728622 -0.0155477755 147 133 120
0.3046042756 0.0304238811 -0.0180922871 146 134 120
0.3042187812 0.0250189182 -0.0109469231 145 136 129
0.3043321293 0.0267264039 -0.0105410043 140 127 118
0.3046426475 0.0310985375 -0.0159065499 143 131 117
0.3042662643 0.0260064765 -0.0050047380 138 128 118
0.3044655838 0.0282177039 -0.0210674765 147 137 127
0.3043517941 0.0272693396 -0.0052404367 135 125 115
0.3044439926 0.0282684454 -0.0131736895 139 129 119
0.3044476145 0.0284843489 -0.0097402430 140 128 116
0.3043962956 0.0272997536 -0.0186483361 144 136 123
0.3045293861 0.0292403626 -0.0195344541 145 135 123
0.3042568834 0.0257953805 -0.0065177188 139 130 121
0.3044126424 0.0277463750 -0.0143418954 137 127 115
0.3043881401 0.0277029926 -0.0075242706 136 126 116
0.3043028050 0.0263720560 -0.0087932330 140 130 121
0.3043804585 0.0271184066 -0.0174918912 147 139 128
0.3044682517 0.0283609288 -0.0188735590 143 136 118
0.3046720154 0.0315861494 -0.0148428953 146 134 120
0.3045370440 0.0297892822 -0.0103155006 138 128 118
0.3046542564 0.0313574530 -0.0140833613 144 132 120
0.3043702117 0.0267225254 -0.0226488911 146 134 122
0.3012909807 0.0180715877 -0.0131926116 149 141 139
0.3029517489 0.0220468433 -0.0039058781 159 151 149
0.3012364428 0.0180935933 -0.0105918092 147 139 136
0.3018995066 0.0194514218 -0.0112517556 148 140 138
0.3018741024 0.0198692026 -0.0022775821 175 170 177
0.3010301169 0.0177334601 -0.0091981726 144 137 129
0.3013199965 0.0179411237 -0.0168384076 150 141 134
0.3031568441 0.0224320152 -0.0047733419 151 144 138
0.3011163824 0.0173983269 -0.0190326505 144 137 127
0.3024392094 0.0211601587 -0.0002928301 160 152 149
0.3024898094 0.0211733997 -0.0020647307 162 156 156
0.3015562438 0.0184799445 -0.0160253003 153 144 139
0.3008366640 0.0174111361 -0.0075992898 148 139 132
0.3019924696 0.0202041934 -0.0006315900 170 164 166
0.3011427054 0.0180228449 -0.0081897261 147 140 134
0.3025424138 0.0211430818 -0.0047465209 174 168 170
0.3009551095 0.0173852226 -0.0128309835 146 138 135
0.3011868826 0.0181830910 -0.0069045218 156 151 155
0.3014341725 0.0184646558 -0.0114333927 146 138 136
0.3037401221 0.0344912526 -0.0017673423 137 125 113
0.3016101416 0.0377887265 -0.0091652147 158 144 131
0.3042308081 0.0338247957 -0.0099326135 143 129 118
0.3010312633 0.0386510313 -0.0075884639 169 155 142
0.3037838086 0.0345367925 -0.0136019199 145 131 118
0.3043001824 0.0336495124 -0.0025019898 139 127 115
0.3015794670 0.0377982061 -0.0052461760 151 137 124
0.3032042297 0.0353111147 -0.0025942935 138 126 114
0.3034179287 0.0349966469 -0.0035852901 145 131 118
0.3033281199 0.0351151171 -0.0017191350 137 125 113
0.3041458651 0.0339162327 -0.0059842224 144 130 117
0.3044696643 0.0333889526 -0.0021060190 139 127 115
0.3043812150 0.0335413494 -0.0040512863 140 128 116
0.3012833817 0.0382922766 -0.0100549602 154 140 127
0.3028631498 0.0358513155 -0.0050675490 157 143 130
0.3045739746 0.0333385618 -0.0135100007 146 132 119
0.3023236056 0.0367312245 -0.0116681216 148 134 121
0.3022826797 0.0367407142 -0.0061049032 168 154 141
0.3033675411 0.0351109991 -0.0076097943 148 134 121
0.2994275491 0.0399438926 0.0134604832 140 128 114
0.2982219133 0.0419513072 0.0081833559 158 144 131
0.2996339773 0.0405925944 -0.0047838513 141 128 112
0.2990428530 0.0405714457 0.0120270099 142 130 116
0.2997436028 0.0396097609 0.0111373136 140 128 114
0.2984447107 0.0418940365 0.0031060625 159 145 132
0.3014377777 0.0379265745 -0.0033975462 143 129 116
0.2997626230 0.0394959173 0.0128060663 140 128 114
0.3013551863 0.0373655964 0.0097179301 139 129 117
0.3024028233 0.0361876421 0.0033754098 139 125 112
0.3009399263 0.0383486166 0.0022740628 137 125 111
0.2992416671 0.0411248648 -0.0041676277 145 132 116
0.3000928059 0.0394828531 0.0038960536 139 127 113
0.3003035253 0.0395013643 -0.0023082538 141 128 112
0.2991100692 0.0406769241 0.0081267270 144 130 119
0.3014641696 0.0374788038 0.0045095492 136 124 110
0.3003861934 0.0385233432 0.0142680831 139 130 115
0.2993906915 0.0408747640 -0.0034773072 145 132 116
0.2988457324 0.0416054745 -0.0024540747 157 144 128
0.3004794209 0.0389067778 0.0042830529 136 124 110
0.3014195857 0.0379388461 -0.0031295199 143 129 116
0.3005092533 0.0384236016 0.0127778026 139 129 117
0.2998470103 0.0392142465 0.0158990920 142 130 116
0.3009369456 0.0385887609 -0.0022766504 141 127 114
0.3016358611 0.0373578230 0.0020796121 138 124 111
0.3005278093 0.0392358551 -0.0034089745 142 128 115
0.3014880332 0.0373861097 0.0056358396 137 123 110
0.2987299656 0.0407258933 0.0177292004 149 135 122
0.3019175380 0.0367621411 0.0057567800 139 125 112
0.3007863474 0.0382642241 0.0081639416 138 126 112
0.3017826918 0.0369211671 0.0064302592 138 124 111
0.2976940348 0.0419495653 0.0228647980 186 173 157
0.3029942563 0.0355481373 -0.0006971516 142 128 115
0.3024998570 0.0360391911 0.0035471340 139 125 112
0.3027917690 0.0355505731 0.0048745674 140 124 111
0.2996992323 0.0394994358 0.0144971764 139 127 113
0.2998491809 0.0399923916 0.0008250798 145 131 118
0.3023644283 0.0359937176 0.0081824569 138 129 114
0.2989152933 0.0406623635 0.0138123999 146 133 117
0.3027182796 0.0358508040 0.0011210373 138 126 112
0.2988235135 0.0418675332 -0.0068937795 149 136 120
0.3024339926 0.0364411422 -0.0023806020 138 124 111
0.3009108581 0.0385282181 -0.0003846269 139 126 110
0.3045347462 0.0299430730 -0.0070250184 136 126 114
0.3045928155 0.0310953497 -0.0042682890 147 135 123
0.3044900946 0.0296357326 -0.0021710212 139 129 117
0.3045033000 0.0298603442 -0.0019951291 140 130 118
0.3046468300 0.0321817263 -0.0015285931 139 127 115
0.3046388598 0.0313219661 -0.0103620022 138 126 114
0.3046340352 0.0313296134 -0.0093451707 138 125 116
0.3045493131 0.0304486294 -0.0037243956 145 133 121
0.3044488912 0.0290500391 -0.0013323143 138 128 118
0.3044137850 0.0286869166 0.0010200165 137 127 117
0.3044840492 0.0294989050 -0.0026612831 139 129 117
0.3044823741 0.0292371372 -0.0054948033 137 127 115
0.3046660877 0.0317575228 -0.0103314983 138 126 114
0.3043322381 0.0272616949 -0.0005263453 138 128 118
0.3025765223 0.0218244639 0.0047604215 137 128 119
0.3016249020 0.0202289833 0.0095068478 143 134 127
0.3025411774 0.0218729236 0.0062956589 136 126 116
0.3019200220 0.0206128978 0.0066360178 144 135 126
0.3010955498 0.0192258892 0.0106889225 148 138 137
0.3010681666 0.0185591340 0.0029931145 159 156 163
0.3022474684 0.0214003784 0.0080114690 141 131 121
0.3009624051 0.0190606824 0.0120850097 170 169 175
0.3038881811 0.0243940074 0.0028913847 141 131 119
0.3020357351 0.0209826826 0.0082764691 142 132 122
0.3034357253 0.0236209858 0.0049659803 138 128 116
0.3000484069 0.0175738224 0.0172183497 145 137 134
0.3010019258 0.0183185445 0.0016893858 160 157 166
0.3021547508 0.0209592353 0.0048697007 149 141 138
0.3011459947 0.0184926620 0.0001201647 164 159 166
0.3019763993 0.0208209196 0.0077867025 142 132 123
0.3005826265 0.0183176056 0.0126376598 151 146 152
0.3019910797 0.0207178374 0.0061025160 149 140 131
0.3000675019 0.0177423507 0.0188453252 155 150 147
0.3008983487 0.0178958715 -0.0009355125 160 155 162
0.3020842663 0.0211939481 0.0096731676 138 130 119
0.3022956760 0.0216321661 0.0096755272 139 129 119
0.3018579843 0.0206082765 0.0081993272 143 135 124
0.3011871537 0.0197769064 0.0152459413 144 136 134
0.3003481310 0.0183256257 0.0188683461 158 150 147
0.3022773074 0.0210711810 0.0030784491 148 143 137
0.2982959267 0.0410368045 0.0235735374 180 166 153
0.3002938474 0.0385364088 0.0164445562 139 130 115
0.3043841231 0.0331801737 0.0059959316 139 130 115
0.2997155196 0.0392147152 0.0193027744 150 136 123
0.3025706449 0.0353884911 0.0135371576 144 132 120
0.3042089836 0.0333645025 0.0072300381 142 133 118
0.3019048492 0.0358263533 0.0228224510 136 127 112
0.3040548910 0.0337997659 0.0035434412 138 126 112
0.3016910677 0.0366059337 0.0146370649 139 131 118
0.3023153745 0.0351992762 0.0233377153 135 126 111
0.3014418382 0.0364282042 0.0240832277 136 127 112
0.3031970507 0.0342970814 0.0166751954 141 129 117
0.3029459409 0.0352130881 0.0070552466 138 126 110
0.3030190335 0.0349907607 0.0090811872 139 130 115
0.2990081931 0.0402060408 0.0199723469 152 138 125
0.2996897950 0.0390716680 0.0224570555 158 144 131
0.3010372668 0.0371130683 0.0224066284 145 131 118
0.2997548143 0.0392118487 0.0183532427 146 132 119
0.3032789571 0.0338921117 0.0216687452 136 126 116
0.3003549783 0.0381015628 0.0224887271 157 143 130
0.3012685550 0.0373003670 0.0132496445 139 129 117
0.3025033036 0.0349137063 0.0235475231 135 126 111
0.3003794895 0.0385010719 0.0148834311 139 130 115
0.3012035787 0.0367656724 0.0242468198 145 133 121
0.3011484425 0.0371187827 0.0194785441 136 126 114
0.3017202349 0.0360145601 0.0242298182 135 125 113
0.3023910816 0.0354738826 0.0166128135 138 129 114
0.3007131588 0.0377136104 0.0201566988 146 136 124
0.3027462333 0.0351320836 0.0135512663 145 132 123
0.3044483490 0.0315980445 0.0045770903 141 131 119
0.3045310688 0.0320502672 0.0032468360 138 128 116
0.3039699410 0.0330141787 0.0175438831 138 128 118
0.3046299623 0.0324613268 0.0014869890 137 127 115
0.3037242224 0.0321311450 0.0220974567 136 129 121
0.3046143727 0.0321645091 0.0014609304 137 127 115
0.3041350281 0.0327997770 0.0134281052 139 129 120
0.3041366883 0.0315635710 0.0117725667 135 125 113
0.3037090412 0.0329744415 0.0235531877 135 126 117
0.3039963340 0.0319606017 0.0155526285 135 126 117
0.3042034665 0.0274208606 0.0048024644 137 129 116
0.3041772903 0.0317018573 0.0110101732 136 126 114
0.3045594214 0.0313444380 0.0016649135 137 127 117
0.3037920236 0.0330550285 0.0217307290 135 126 117
0.3040764893 0.0329424767 0.0149747422 141 131 122
0.3040667738 0.0313170826 0.0130744287 135 127 114
0.3041749684 0.0303274299 0.0092663535 137 127 115
0.3039882860 0.0285776865 0.0113147221 135 125 113
0.3042436800 0.0285552711 0.0053520343 136 126 116
0.3041999121 0.0329977187 0.0121796147 139 129 119
0.3038775194 0.0323937646 0.0188795344 136 128 115
0.3041558851 0.0327338538 0.0128573211 139 129 119
0.3010268905 0.0201722239 0.0232098697 138 130 117
0.3008596407 0.0196186028 0.0212032946 143 135 124
0.3035743443 0.0249556248 0.0158831483 153 151 154
0.3011398967 0.0198906924 0.0177582688 144 135 126
0.3014207758 0.0211698010 0.0247556568 137 125 109
0.3009329059 0.0195479992 0.0188309977 144 135 128
0.3021456083 0.0224912173 0.0222596279 132 123 108
0.3009844502 0.0202230267 0.0246869093 140 128 112
0.3011122533 0.0199055226 0.0185307320 143 134 127
0.3003393986 0.0187622725 0.0239511632 140 133 123
0.3002091858 0.0184731586 0.0238624512 140 133 123
0.3022933740 0.0220783179 0.0146662863 183 180 187
0.3026813765 0.0236367555 0.0221673719 130 123 107
0.3031527545 0.0237080144 0.0123609889 137 128 119
0.3018799439 0.0219733997 0.0228266800 133 121 105
0.3036696658 0.0244418754 0.0084159839 135 128 112
0.3023113140 0.0218531106 0.0119264754 139 131 128
0.3032998012 0.0245657409 0.0179772427 149 144 140
0.3018242519 0.0212589295 0.0166540140 146 139 131
0.3024618141 0.0229698539 0.0201549592 132 125 109
0.3029333644 0.0234651851 0.0147480650 165 165 167
0.3022657093 0.0221124767 0.0156399257 166 162 163
0.3006801006 0.0194219228 0.0231779855 149 140 131
0.2982793719 0.0396952326 0.0273455093 161 147 136
0.3019569076 0.0347586192 0.0269105512 137 129 118
0.2978512930 0.0390532553 0.0305741118 151 141 129
0.2980333463 0.0405635288 0.0259691770 174 160 147
0.2991421877 0.0376465589 0.0295694526 147 137 125
0.2990850460 0.0397203589 0.0243595262 169 155 142
0.3000438110 0.0380721034 0.0251897325 161 148 139
0.2991248644 0.0385507529 0.0272703663 158 144 133
0.3001547930 0.0378591117 0.0253438165 159 147 135
0.2982257412 0.0403344560 0.0258701672 171 157 144
0.2987858595 0.0378519797 0.0303244584 144 134 122
0.3034048310 0.0258412184 0.0211602591 130 123 115
0.3039150370 0.0257063317 0.0092225927 136 126 114
0.3034295225 0.0270832778 0.0222299472 138 131 123
0.3037425482 0.0272782543 0.0152723013 143 136 130
0.3036259986 0.0314246013 0.0234294213 147 140 134
0.3037449909 0.0299990038 0.0188058137 150 142 139
0.3034614217 0.0270349859 0.0214309878 138 131 125
0.3039236801 0.0270061707 0.0107384146 134 124 112
0.3037758298 0.0275984371 0.0149276524 141 134 126
0.3035352435 0.0292327582 0.0226292629 155 147 145
0.3037103983 0.0288664784 0.0181088589 149 144 141
0.3039087250 0.0266075481 0.0105571633 135 125 113
0.3036203408 0.0304327244 0.0222511235 153 148 145
0.3033749777 0.0266375427 0.0228990334 137 128 119
0.3034699498 0.0272029466 0.0214560361 139 132 126
0.3039723530 0.0270206235 0.0096356264 134 124 112
0.3037573585 0.0277598857 0.0155664135 139 135 126
0.3035280284 0.0288755176 0.0223242127 152 144 142
0.3037945572 0.0283019687 0.0154242612 142 138 129
0.3036984913 0.0293180814 0.0189791552 150 145 142
0.3035029875 0.0263953902 0.0196290447 141 133 130
0.3011444751 0.0240252975 0.0296202799 148 138 126
0.3010673315 0.0221417782 0.0272742606 140 131 116
0.3014436000 0.0232582121 0.0276940995 146 136 124
0.3000972317 0.0183807910 0.0249863635 142 134 121
0.3000526601 0.0197579369 0.0269982141 143 131 117
0.3003006187 0.0214527249 0.0285848087 143 134 119
0.3024238606 0.0247496860 0.0268523778 144 134 122
0.3002307429 0.0200424489 0.0268638170 143 131 117
0.2962132736 0.0417102631 0.0263240454 197 183 170
0.2958661376 0.0412609671 0.0280280648 198 185 169
0.2930881000 0.0416168130 0.0308655634 171 158 142
0.2907726261 0.0421725391 0.0325223903 165 153 137
0.2900103900 0.0424710844 0.0327518570 165 153 137
0.2973972708 0.0387219056 0.0328674143 148 140 129
0.2965273008 0.0395264805 0.0318616540 149 139 129
0.2963811333 0.0404828347 0.0294483984 170 158 144
0.2960910722 0.0412548851 0.0277361932 193 180 164
0.2916458639 0.0416036566 0.0328795201 163 151 135
0.2991797062 0.0367574577 0.0314586793 142 134 123
0.2990221771 0.0362897715 0.0327805518 145 136 127
0.3010259054 0.0349017698 0.0294504275 146 136 124
0.3005662716 0.0355912973 0.0295322465 146 136 124
0.3029432533 0.0337721534 0.0258989689 136 126 116
0.3032544773 0.0317430556 0.0259282238 140 132 121
0.3017167666 0.0256371077 0.0295561972 143 133 121
0.3020695516 0.0261141842 0.0285631944 148 138 128
0.3031952602 0.0317709579 0.0261136862 139 131 120
0.3024815098 0.0299857688 0.0279801044 143 137 125
0.3021771027 0.0270095166 0.0283908888 147 137 127
0.3022240602 0.0289149171 0.0285790664 146 140 128
0.3032108603 0.0280933366 0.0254264780 148 139 130
0.2985267083 0.0174225398 0.0278347112 146 136 124
0.2998442735 0.0219525568 0.0304722389 148 136 124
0.2986829451 0.0189092147 0.0293895846 150 140 130
0.2992110530 0.0185236929 0.0275671532 142 132 120
0.2968847912 0.0172172221 0.0316641767 157 147 138
0.2994815623 0.0230490050 0.0328118699 152 146 134
0.2993274445 0.0190938945 0.0280225731 143 134 119
0.2984029225 0.0203880623 0.0320230768 151 140 134
