0.0546933567 0.0049158640 0.0223935205 106 97 98
0.0548853009 0.0032657758 0.0252458637 126 112 101
0.0547935464 0.0055877940 0.0244589419 109 102 92
0.0548294403 0.0042966290 0.0246228272 117 106 100
0.0547478311 0.0035247664 0.0228560044 118 104 103
0.0548580724 0.0044464483 0.0251972110 121 108 102
0.0548005835 0.0051815704 0.0244335046 111 102 93
0.0548018535 0.0054867089 0.0245712309 112 103 98
0.0546804110 0.0046205924 0.0220482547 112 103 106
0.0547096888 0.0042483435 0.0224379960 117 105 105
0.0548267072 0.0036393855 0.0243262193 116 105 99
0.0494414532 0.0073423046 -0.0456051028 137 174 226
0.0494285423 0.0072620708 -0.0466244755 154 196 244
0.0489373636 0.0082494335 -0.0464577292 102 122 149
0.0492278842 0.0076076463 -0.0471134692 167 207 255
0.0495037922 0.0071846072 -0.0459384830 134 170 220
0.0489650121 0.0081926349 -0.0464788758 137 163 196
0.0498313037 0.0064531994 -0.0449755234 194 234 255
0.0501002701 0.0054961185 -0.0454652371 192 242 249
0.0499223957 0.0061293266 -0.0451403592 190 242 255
0.0500371187 0.0056179431 -0.0457440792 193 244 247
0.0501463958 0.0053104821 -0.0456315275 194 243 255
0.0497698423 0.0064581084 -0.0456819295 200 238 255
0.0497213891 0.0064423336 -0.0463140183 197 238 255
0.0385474491 0.0201214595 -0.0583709794 114 124 133
0.0397191048 0.0193600081 -0.0579193720 112 135 166
0.0394261417 0.0196161402 -0.0577315478 125 136 164
0.0394272580 0.0196184627 -0.0577171735 125 136 164
0.0383720937 0.0201176594 -0.0589773259 106 116 125
0.0390159288 0.0196941956 -0.0587522194 98 114 129
0.0396228055 0.0193662871 -0.0582140833 110 130 155
0.0375396798 0.0209883025 -0.0568351872 216 237 255
0.0379073326 0.0207752697 -0.0569367950 192 213 240
0.0376029855 0.0209710029 -0.0567624190 216 237 255
0.0385375547 0.0207037196 -0.0557435443 208 235 255
0.0377631859 0.0209028841 -0.0566916288 216 237 255
0.0431275142 0.0160195143 -0.0586264281 82 105 123
0.0422272195 0.0170638452 -0.0547460016 186 226 255
0.0414316835 0.0178166033 -0.0568545880 179 224 255
0.0411168336 0.0181379572 -0.0569260130 186 230 255
0.0425273620 0.0166599516 -0.0578544746 131 165 203
0.0429533790 0.0162330381 -0.0575004528 135 166 197
0.0424014857 0.0168314370 -0.0564825275 165 212 242
0.0429372827 0.0162488744 -0.0575233987 135 166 197
0.0412764606 0.0179439315 -0.0579025517 175 211 247
0.0421161207 0.0171117537 -0.0569036098 187 232 255
0.0425523081 0.0166576884 -0.0570934069 180 223 255
0.0421185090 0.0171337651 -0.0561069335 183 230 255
0.0431797564 0.0159926056 -0.0577544974 109 136 165
0.0421375414 0.0170923039 -0.0568201644 177 224 252
0.0426919809 0.0165043073 -0.0574141511 162 198 232
0.0424004046 0.0168057557 -0.0573549675 181 220 255
0.0408789157 0.0183668386 -0.0574342828 190 230 255
0.0418558048 0.0173573635 -0.0576166463 168 208 244
0.0431454379 0.0160122451 -0.0582633606 87 112 132
0.0417001646 0.0174991095 -0.0582090850 120 153 194
0.0409134951 0.0183288756 -0.0575133586 195 232 255
0.0441042290 0.0150019162 -0.0578837552 111 134 165
0.0445135825 0.0145879307 -0.0543302684 192 212 249
0.0442566286 0.0148717229 -0.0539171933 156 174 194
0.0440121409 0.0151281464 -0.0550265982 122 146 180
0.0444154177 0.0146834394 -0.0555985295 102 128 151
0.0434073326 0.0157810840 -0.0557159652 103 136 169
0.0437345905 0.0154200901 -0.0561928485 98 129 150
0.0446718780 0.0144068765 -0.0552724104 100 126 151
0.0449850900 0.0140746018 -0.0542678408 124 144 169
0.0438208990 0.0153322840 -0.0555011892 101 128 157
0.0431456801 0.0160752557 -0.0547219851 99 129 163
0.0429962406 0.0162402387 -0.0544889417 130 161 190
0.0430675495 0.0161526509 -0.0555791203 150 186 222
0.0444566485 0.0146481162 -0.0545364726 163 186 220
0.0445401766 0.0145509073 -0.0552182883 102 128 151
0.0446654474 0.0144112587 -0.0555625566 95 121 148
0.0436540504 0.0155152654 -0.0553759294 107 136 170
0.0435606022 0.0156009806 -0.0571581974 111 136 166
0.0439151302 0.0152009513 -0.0586639867 81 107 130
0.0438374139 0.0153044949 -0.0565826410 180 206 233
0.0440566023 0.0150829455 -0.0546667536 157 179 218
0.0488592088 0.0078533872 -0.0563655299 115 148 189
0.0479227477 0.0092904832 -0.0578348575 154 181 224
0.0460983181 0.0123728067 -0.0543022060 147 181 219
0.0458964866 0.0127106288 -0.0539830722 142 170 207
0.0488877261 0.0078192182 -0.0561036443 90 124 162
0.0473741171 0.0102734150 -0.0555042292 153 196 238
0.0493259069 0.0071438111 -0.0554834291 86 120 165
0.0474074221 0.0101441172 -0.0572216839 150 193 235
0.0493009445 0.0071864382 -0.0554248250 86 120 165
0.0470386782 0.0107735520 -0.0563616409 174 216 255
0.0462823797 0.0120692011 -0.0544919854 171 208 252
0.0481294346 0.0090891871 -0.0548875850 167 204 248
0.0475498733 0.0098883070 -0.0578402541 176 213 255
0.0473074697 0.0103529615 -0.0561232911 166 209 251
0.0477615335 0.0096467214 -0.0556243497 178 221 255
0.0482018962 0.0088520693 -0.0576239285 137 168 214
0.0486962146 0.0081498829 -0.0555718589 124 159 197
0.0489763274 0.0076515402 -0.0566823567 130 163 204
0.0476928644 0.0098194563 -0.0542075730 169 204 244
0.0475767327 0.0099776776 -0.0548423499 173 214 255
0.0460473812 0.0124259315 -0.0549489510 117 154 198
0.0476704361 0.0098379533 -0.0546031326 180 219 255
0.0472684720 0.0104062523 -0.0563328485 166 209 251
0.0476772359 0.0097825906 -0.0556093624 174 217 255
0.0482337009 0.0088551146 -0.0564003837 129 168 209
0.0463458663 0.0119861854 -0.0540661938 174 209 249
0.0484056484 0.0085609186 -0.0568169717 153 190 232
0.0456445078 0.0130998731 -0.0543205585 172 198 231
0.0460780095 0.0124212549 -0.0539428919 180 210 246
0.0482528136 0.0087266889 -0.0586133289 88 111 145
0.0484011278 0.0085291990 -0.0576990277 112 141 185
0.0470297344 0.0107952357 -0.0561955402 167 208 252
0.0484911890 0.0084425912 -0.0563897948 160 197 239
0.0473819701 0.0103103822 -0.0543824208 147 186 225
0.0476988487 0.0097789152 -0.0549079340 176 217 255
0.0462690389 0.0120656381 -0.0550569468 171 209 255
0.0480218801 0.0092772571 -0.0545353830 173 210 254
0.0484233364 0.0086255647 -0.0547116320 177 212 252
0.0455077013 0.0133350514 -0.0539640486 181 202 231
0.0475381309 0.0100071025 -0.0555777175 159 202 245
0.0470371442 0.0107723500 -0.0564445391 174 216 255
0.0491368781 0.0076402901 -0.0532904456 177 196 226
0.0476630178 0.0103629324 -0.0508927267 89 98 107
0.0481299109 0.0095562784 -0.0482374753 94 102 105
0.0488535773 0.0082233804 -0.0491749187 86 96 105
0.0489645112 0.0079637967 -0.0526983720 75 87 99
0.0490241280 0.0079250509 -0.0484293369 111 137 162
0.0495004884 0.0069797261 -0.0532013292 145 174 208
0.0492346295 0.0075543151 -0.0476634658 173 214 255
0.0482028383 0.0093659867 -0.0517551711 74 86 100
0.0489064358 0.0080618937 -0.0531656664 97 117 144
0.0478820545 0.0099676724 -0.0506763658 87 97 106
0.0465430259 0.0124184656 -0.0498910630 92 101 108
0.0483003628 0.0092212423 -0.0497479749 86 96 105
0.0468611906 0.0118312317 -0.0503776295 90 97 105
0.0480723847 0.0096062903 -0.0515846424 81 89 100
0.0477998711 0.0101493495 -0.0487162901 93 102 107
0.0489821062 0.0079847376 -0.0494582099 84 94 106
0.0491081379 0.0076918382 -0.0533380811 177 196 226
0.0492607696 0.0074354246 -0.0520242276 84 92 105
0.0474755012 0.0107086616 -0.0506285145 90 100 109
0.0485800693 0.0087366877 -0.0482370161 93 101 104
0.0491398290 0.0076431459 -0.0527871620 167 179 203
0.0487549620 0.0084251132 -0.0478180220 90 104 117
0.0479263384 0.0098697503 -0.0517341688 87 95 106
0.0474461463 0.0107789334 -0.0495994014 93 103 112
0.0495554492 0.0069095882 -0.0513708119 82 99 115
0.0473269421 0.0110002872 -0.0493351749 93 102 111
0.0495007052 0.0069682633 -0.0538782855 147 180 221
0.0489734744 0.0080222907 -0.0481225742 104 126 149
0.0475415116 0.0105984565 -0.0500181522 91 102 106
0.0490375782 0.0078670700 -0.0504778159 86 93 103
0.0476216146 0.0104754142 -0.0486236188 95 104 113
0.0477888523 0.0101314958 -0.0510353104 89 96 102
0.0484866375 0.0088593042 -0.0511418723 85 93 96
0.0493474823 0.0072764255 -0.0520928731 87 96 113
0.0495724114 0.0068653242 -0.0521892404 131 151 178
0.0474632306 0.0107501406 -0.0494579679 93 103 112
0.0487949118 0.0082947337 -0.0513436555 85 93 96
0.0482895995 0.0092320144 -0.0502877053 87 97 98
0.0495006355 0.0069669273 -0.0539677555 156 193 235
0.0483142373 0.0091897219 -0.0501308078 86 97 99
0.0485995254 0.0086529950 -0.0511893043 81 90 95
0.0490422565 0.0078856611 -0.0488197641 96 118 141
0.0478476872 0.0100127552 -0.0517460608 89 97 108
0.0474880406 0.0107121850 -0.0490166329 94 104 113
0.0470659474 0.0114596203 -0.0503050281 92 100 102
0.0477237824 0.0102631777 -0.0502273549 88 98 107
0.0499580703 0.0057797783 -0.0463231871 194 243 247
0.0501172601 0.0054571179 -0.0467028534 195 242 255
0.0504649365 0.0048036146 -0.0479066118 93 123 159
0.0503190488 0.0051786247 -0.0481388879 107 143 177
0.0501666200 0.0054175692 -0.0472631618 199 244 255
0.0497630386 0.0063707051 -0.0472891171 192 242 255
0.0503907276 0.0046493375 -0.0455006133 149 189 224
0.0498669949 0.0060210547 -0.0465205982 193 241 245
0.0504601057 0.0048429427 -0.0481111694 107 137 173
0.0495654564 0.0068173022 -0.0471552788 159 205 241
0.0503284296 0.0048214326 -0.0456872657 152 195 227
0.0388074038 0.0197766605 -0.0599567696 189 212 228
0.0401355512 0.0189361530 -0.0595095167 133 168 200
0.0394477404 0.0193876696 -0.0592241210 166 194 218
0.0400792089 0.0189953067 -0.0587804559 92 127 159
0.0397171995 0.0192237775 -0.0589222270 118 149 178
0.0401540065 0.0189079411 -0.0600296023 164 198 235
0.0400487707 0.0189607458 -0.0605041214 184 216 255
0.0402501777 0.0188456337 -0.0600432524 166 197 228
0.0404314509 0.0187863478 -0.0582176046 119 154 184
0.0393652189 0.0194503888 -0.0589177770 127 151 175
0.0378719992 0.0206959586 -0.0574040135 154 174 198
0.0367188484 0.0210182634 -0.0587262548 138 153 172
0.0377861401 0.0204523231 -0.0589245298 105 117 131
0.0381559740 0.0204813822 -0.0577968132 118 136 156
0.0382993214 0.0202948793 -0.0584105409 113 127 140
0.0381266999 0.0204877532 -0.0578400032 118 136 156
0.0369460084 0.0212516936 -0.0569194001 183 204 225
0.0335509929 0.0228367981 -0.0563284741 114 119 123
0.0345023210 0.0221416548 -0.0580033605 111 114 121
0.0346436871 0.0222047879 -0.0572513793 113 116 121
0.0358573150 0.0214854053 -0.0583812156 119 132 141
0.0373523104 0.0211468388 -0.0564798899 199 223 249
0.0348186511 0.0220611476 -0.0576543899 108 113 119
0.0352047641 0.0218165195 -0.0581086094 117 126 133
0.0368610292 0.0213069453 -0.0568109417 155 174 191
0.0375356616 0.0212751950 -0.0552250988 143 165 186
0.0371501454 0.0212302042 -0.0565109958 183 204 225
0.0338920311 0.0226702267 -0.0564319956 113 118 122
0.0351994254 0.0219836330 -0.0571176951 108 113 119
0.0351028068 0.0221463199 -0.0563938055 111 114 119
0.0337949467 0.0226875621 -0.0565834365 113 118 122
0.0357500946 0.0218490000 -0.0564770433 111 120 129
0.0331448584 0.0229377220 -0.0567911821 114 119 122
0.0367323179 0.0212813033 -0.0573041321 145 162 178
0.0351222596 0.0221042927 -0.0565953125 111 114 121
0.0355944445 0.0219826596 -0.0560831868 111 116 122
0.0336308739 0.0227041174 -0.0569159959 113 118 122
0.0358196934 0.0217883904 -0.0566582301 111 120 129
0.0366804185 0.0214603819 -0.0563638904 122 138 151
0.0345993987 0.0223721943 -0.0563612859 110 115 119
0.0357470337 0.0218095289 -0.0567224730 111 120 129
0.0353114726 0.0219556585 -0.0569908276 110 117 125
0.0405718204 0.0186630586 -0.0581808618 121 157 183
0.0426802766 0.0165080072 -0.0590925564 117 145 159
0.0421361326 0.0170535644 -0.0586850763 104 135 156
0.0442080420 0.0148485607 -0.0583779734 84 111 132
0.0447180661 0.0143102842 -0.0563745631 182 208 245
0.0448218857 0.0140471374 -0.0589169532 113 138 160
0.0443947451 0.0145991989 -0.0586495889 107 135 156
0.0447955028 0.0142277920 -0.0560850981 182 208 245
0.0450637880 0.0137162967 -0.0594178364 162 186 212
0.0451279022 0.0138868001 -0.0545907591 115 138 169
0.0449921139 0.0140190029 -0.0553375178 99 125 160
0.0444711335 0.0144673364 -0.0593339026 178 205 234
0.0447404116 0.0142352586 -0.0572749965 117 142 172
0.0453826232 0.0132746051 -0.0601862228 110 136 159
0.0448398450 0.0140977255 -0.0575104993 120 145 175
0.0452204037 0.0137074109 -0.0557980858 145 175 211
0.0451342225 0.0136424677 -0.0591314221 158 180 203
0.0452232449 0.0136669163 -0.0565072256 137 166 198
0.0454221679 0.0132287582 -0.0601098731 110 136 159
0.0490970197 0.0071976039 -0.0579909491 99 128 162
0.0490106233 0.0073969533 -0.0578417468 97 127 165
0.0491241374 0.0073294814 -0.0569455089 167 199 238
0.0489168934 0.0073001707 -0.0594383872 103 132 166
0.0491269209 0.0073088011 -0.0570304058 167 199 238
0.0496661699 0.0066217314 -0.0548318068 133 175 217
0.0487686677 0.0074812574 -0.0600863784 124 152 191
0.0494634827 0.0063425643 -0.0586770070 99 126 153
0.0489617991 0.0074253490 -0.0582307438 82 111 145
0.0490350714 0.0072511698 -0.0583859979 99 128 162
0.0491588798 0.0071492984 -0.0575673423 152 182 220
0.0483950499 0.0083030116 -0.0596676728 100 125 145
0.0491905805 0.0067498808 -0.0594548488 96 125 157
0.0494875242 0.0064873887 -0.0575933991 98 127 169
0.0491738249 0.0073286612 -0.0563919143 160 194 231
0.0493537342 0.0065184081 -0.0589221859 97 124 153
0.0491863151 0.0069516902 -0.0583691477 95 122 152
0.0491554835 0.0069097496 -0.0589511101 95 122 152
0.0462766703 0.0119690048 -0.0571728265 182 211 245
0.0453458511 0.0134985129 -0.0564951545 164 193 225
0.0453830744 0.0134472200 -0.0562627027 168 198 232
0.0466600127 0.0113691246 -0.0566625570 177 210 251
0.0457105811 0.0129477911 -0.0554829690 187 220 255
0.0463461348 0.0118826789 -0.0564920225 186 219 255
0.0472834971 0.0103158280 -0.0578736028 167 202 242
0.0456787983 0.0129327115 -0.0572294166 177 204 234
0.0472262821 0.0103503922 -0.0593950357 78 104 121
0.0464041181 0.0117958276 -0.0563126990 186 219 255
0.0456992656 0.0129064374 -0.0570508746 177 204 234
0.0458147180 0.0126062693 -0.0600391261 115 138 169
0.0456782388 0.0129249299 -0.0574577767 146 173 200
0.0457896213 0.0128318741 -0.0551734539 121 156 196
0.0454508200 0.0133620828 -0.0556236584 187 219 255
0.0460860188 0.0122384570 -0.0581862377 120 142 166
0.0462694362 0.0120363612 -0.0557091465 181 218 255
0.0453599244 0.0135063660 -0.0556909178 164 194 230
0.0460472893 0.0122501930 -0.0595227092 183 209 234
0.0471939628 0.0104149224 -0.0590711530 86 112 135
0.0455643445 0.0130768110 -0.0583021390 87 108 127
0.0465700061 0.0115029563 -0.0569668548 178 210 249
0.0473385509 0.0101671977 -0.0594430145 78 105 124
0.0464445059 0.0116665362 -0.0579965886 131 150 193
0.0452888284 0.0136358942 -0.0553051321 156 184 221
0.0463390152 0.0118141742 -0.0585955685 105 128 160
0.0453781982 0.0134144855 -0.0573304822 122 148 175
0.0460535246 0.0122278838 -0.0598444222 180 207 237
0.0466558561 0.0113022572 -0.0585972030 91 116 147
0.0456237229 0.0130251089 -0.0571394073 177 204 234
0.0453644862 0.0135358194 -0.0547227625 167 193 228
0.0454357295 0.0133235361 -0.0572781057 153 180 209
0.0464237164 0.0116464169 -0.0594086026 70 101 122
0.0459660249 0.0124699413 -0.0571967357 90 117 146
0.0496812298 0.0066442199 -0.0527653926 172 198 231
0.0497835331 0.0064049119 -0.0487297105 177 226 255
0.0498123611 0.0063394118 -0.0480779573 159 209 244
0.0496765206 0.0066348188 -0.0478269685 173 223 255
0.0498950531 0.0061616792 -0.0487564393 170 218 254
0.0497854189 0.0064231587 -0.0543419892 138 180 222
0.0501115991 0.0056981332 -0.0510057638 180 219 255
0.0502736234 0.0053412463 -0.0501658811 188 227 255
0.0499764959 0.0059972052 -0.0520783851 164 197 240
0.0498330649 0.0063179079 -0.0540192113 157 199 239
0.0498398341 0.0062810459 -0.0484746928 166 216 251
0.0495038967 0.0070132182 -0.0482612108 173 218 255
0.0502968557 0.0052922829 -0.0506001361 173 215 255
0.0499611028 0.0060332146 -0.0526860617 152 186 231
0.0499728394 0.0060015937 -0.0511773306 178 216 253
0.0498859822 0.0061865788 -0.0500380893 180 225 248
0.0498853932 0.0061841371 -0.0491027270 176 225 255
0.0497253442 0.0065458295 -0.0522303459 165 194 226
0.0499087966 0.0061476519 -0.0527623317 172 207 249
0.0497051182 0.0065779388 -0.0492125384 178 225 253
0.0497094520 0.0065771808 -0.0513956865 94 122 144
0.0497465648 0.0065012633 -0.0526664765 184 217 252
0.0367573016 0.0209099361 -0.0605005626 111 118 128
0.0346803435 0.0219950636 -0.0617306773 111 120 129
0.0357734234 0.0213837810 -0.0615741811 114 121 131
0.0351356095 0.0217370605 -0.0617070845 114 123 130
0.0382892784 0.0201017822 -0.0596879680 116 128 140
0.0368493239 0.0207974402 -0.0612328506 112 121 128
0.0391076054 0.0195487666 -0.0607358004 179 213 251
0.0387598025 0.0196573206 -0.0618353466 187 217 255
0.0361415878 0.0212207004 -0.0609986234 114 121 131
0.0379226492 0.0203213154 -0.0595633167 107 116 123
0.0355701601 0.0215437221 -0.0610381451 114 121 127
0.0372757612 0.0205283101 -0.0615461975 116 130 141
0.0365884028 0.0209972507 -0.0606119333 111 118 128
0.0355109563 0.0215174014 -0.0617724809 113 120 128
0.0355086700 0.0215543744 -0.0613368413 113 120 128
0.0373472679 0.0205830490 -0.0603789723 105 112 118
0.0340743409 0.0223390597 -0.0617551307 114 121 129
0.0356813180 0.0214816879 -0.0610206603 114 121 127
0.0381672853 0.0201886280 -0.0594779674 104 115 121
0.0403965219 0.0187006496 -0.0615429872 142 171 211
0.0414095185 0.0180035593 -0.0622637053 94 119 141
0.0415761361 0.0178775911 -0.0627252497 93 110 126
0.0418296079 0.0177237501 -0.0622813540 103 124 145
0.0405751625 0.0185898236 -0.0613030031 124 154 192
0.0415882001 0.0178990877 -0.0618301972 109 133 161
0.0422088155 0.0174354477 -0.0633805974 94 104 114
0.0405708897 0.0186856375 -0.0584835736 121 157 183
0.0410118930 0.0182745129 -0.0620618053 123 150 177
0.0414595721 0.0179579188 -0.0626388418 94 115 134
0.0411001097 0.0182834750 -0.0600118849 174 200 237
0.0352101201 0.0217445152 -0.0604986314 117 126 133
0.0354575393 0.0216180014 -0.0605699042 118 127 134
0.0360256471 0.0213155961 -0.0597033894 116 126 135
0.0354943541 0.0215963619 -0.0603370868 118 127 134
0.0350466254 0.0218267546 -0.0603338408 114 123 132
0.0375087340 0.0205461717 -0.0591731452 105 117 131
0.0364143585 0.0211119210 -0.0593904298 120 132 146
0.0348031645 0.0218897466 -0.0587106226 113 120 128
0.0338579223 0.0222858422 -0.0587942327 112 117 121
0.0325916198 0.0230840171 -0.0573571474 115 120 123
0.0347784290 0.0219291520 -0.0585446653 113 120 128
0.0337159191 0.0223361148 -0.0588602508 112 117 121
0.0340500211 0.0222040758 -0.0587845888 112 117 121
0.0324583814 0.0231554164 -0.0572787989 115 120 123
0.0421017276 0.0172656870 -0.0605500545 157 181 219
0.0408227088 0.0184785794 -0.0589918307 105 136 154
0.0421020246 0.0174086894 -0.0619026884 115 133 155
0.0421185014 0.0174662947 -0.0626138857 97 111 124
0.0412948427 0.0180945406 -0.0601680734 185 208 249
0.0415232309 0.0179151803 -0.0607975890 150 175 216
0.0411579354 0.0180748238 -0.0585899098 119 149 177
0.0414596086 0.0178506348 -0.0595415124 83 109 142
0.0422222754 0.0172041494 -0.0611950182 169 194 225
0.0420364975 0.0173169495 -0.0603705910 117 142 173
0.0416218178 0.0177379102 -0.0601270043 145 169 203
0.0429009495 0.0165603930 -0.0618048954 181 210 242
0.0432906999 0.0158714625 -0.0590926487 126 148 172
0.0430820273 0.0161973335 -0.0601334693 104 132 172
0.0429102851 0.0163938550 -0.0603041808 118 146 186
0.0425639796 0.0168613699 -0.0613301630 187 219 255
0.0434325560 0.0158334701 -0.0601414119 148 173 213
0.0433188682 0.0158337758 -0.0590124559 126 148 172
0.0424942907 0.0168046854 -0.0600939024 197 221 255
0.0425921138 0.0167020853 -0.0600860176 169 193 237
0.0423888533 0.0170940530 -0.0618132251 136 165 195
0.0450963726 0.0137736323 -0.0608506841 141 169 208
0.0449146640 0.0141905516 -0.0619425637 149 173 209
0.0444793270 0.0144704727 -0.0595580298 178 205 234
0.0449390251 0.0139114304 -0.0602435549 98 124 159
0.0440989297 0.0151315098 -0.0603709415 139 169 205
0.0442863673 0.0152328249 -0.0629405833 102 117 136
0.0441426621 0.0152694065 -0.0617651919 137 164 194
0.0443708762 0.0151500431 -0.0632056461 92 106 119
0.0443045036 0.0151750079 -0.0627188955 105 123 145
0.0445977791 0.0146527448 -0.0620043715 161 186 216
0.0443471687 0.0147077030 -0.0598931171 113 144 175
0.0443070699 0.0146837181 -0.0593273191 132 160 184
0.0448799969 0.0139315278 -0.0597960245 144 170 205
0.0443303398 0.0148919872 -0.0610074408 131 163 201
0.0484853679 0.0080584280 -0.0618518544 92 121 151
0.0485972737 0.0077967717 -0.0619552560 103 136 169
0.0487600121 0.0074251104 -0.0614281885 137 169 218
0.0482702930 0.0085849287 -0.0598456449 75 98 112
0.0483381068 0.0084252289 -0.0599954556 90 113 131
0.0486475288 0.0077005255 -0.0603745549 172 199 244
0.0486163566 0.0077411726 -0.0628132416 121 148 175
0.0483736492 0.0083278703 -0.0611192363 123 148 179
0.0488827194 0.0071276046 -0.0623523617 128 166 211
0.0488856294 0.0071264089 -0.0619257863 132 168 216
0.0489360591 0.0070125929 -0.0616587329 139 177 226
0.0495240970 0.0060372692 -0.0593488715 161 188 215
0.0499603500 0.0053643627 -0.0571646690 127 157 193
0.0501473010 0.0046059218 -0.0583507287 90 116 143
0.0494925608 0.0062583202 -0.0587284603 104 130 157
0.0494497822 0.0062467506 -0.0592927472 156 183 212
0.0500243692 0.0045001843 -0.0602995498 165 193 230
0.0500408280 0.0052103532 -0.0568966017 121 155 192
0.0501423578 0.0046851682 -0.0580521534 99 126 153
0.0498846837 0.0049111077 -0.0601165332 121 149 188
0.0496298536 0.0063982998 -0.0564531586 136 168 217
0.0495996359 0.0061177461 -0.0580813753 75 101 138
0.0494624794 0.0060087328 -0.0602152537 153 185 226
0.0495043883 0.0060446289 -0.0595515595 161 190 224
0.0497386628 0.0061942079 -0.0560720568 166 203 248
0.0496434241 0.0060902335 -0.0576814345 58 87 129
0.0499239583 0.0048309274 -0.0600083798 121 149 188
0.0504113899 0.0034085824 -0.0605947850 124 144 171
0.0496392523 0.0055856688 -0.0600091416 153 182 224
0.0497899419 0.0058108977 -0.0571886380 86 117 161
0.0494198200 0.0062056161 -0.0598370884 161 190 224
0.0501362392 0.0046021953 -0.0584999605 90 116 143
0.0498723835 0.0050207824 -0.0597686589 75 101 134
0.0497883770 0.0051470648 -0.0602041312 112 139 182
0.0474641138 0.0102933901 -0.0621201739 101 128 145
0.0467944573 0.0114261512 -0.0628537473 85 103 125
0.0465983413 0.0114692757 -0.0607971871 128 161 192
0.0471471216 0.0105119019 -0.0599671577 70 96 113
0.0469694272 0.0109249360 -0.0610468200 174 193 235
0.0460937510 0.0123526719 -0.0615848853 144 165 208
0.0473613323 0.0102299573 -0.0603652810 153 179 204
0.0469713485 0.0111163505 -0.0625767127 92 114 138
0.0468904360 0.0111418809 -0.0617891285 109 131 170
0.0471571455 0.0109186891 -0.0632910103 81 94 100
0.0474915164 0.0100103518 -0.0602274576 85 110 132
0.0466160551 0.0116865578 -0.0627235933 132 154 177
0.0470380139 0.0107098362 -0.0601919209 131 151 176
0.0468981826 0.0109159334 -0.0601055751 80 98 118
0.0463858187 0.0119312104 -0.0618361986 201 225 255
0.0471678648 0.0105236715 -0.0603132038 121 143 167
0.0473886535 0.0103209349 -0.0614150523 141 166 197
0.0463178577 0.0119805979 -0.0613945954 194 219 255
0.0471313604 0.0107224620 -0.0614316980 169 191 232
0.0463028299 0.0119281535 -0.0607982680 180 212 251
0.0351280812 0.0220260537 -0.0631593938 112 119 127
0.0359744760 0.0214941855 -0.0629952997 112 119 129
0.0374287352 0.0207305334 -0.0633428861 104 118 129
0.0372164000 0.0208041582 -0.0631333821 102 115 124
0.0378941686 0.0203508622 -0.0628871705 108 126 146
0.0357953042 0.0214363357 -0.0623156438 112 119 129
0.0363948531 0.0215130701 -0.0641001775 109 116 126
0.0367195568 0.0210905917 -0.0631216552 106 116 125
0.0379052248 0.0201835363 -0.0622128076 162 183 212
0.0363060156 0.0212399681 -0.0627387167 112 121 128
0.0359821552 0.0216916019 -0.0638415004 108 115 125
0.0345388946 0.0220872260 -0.0619781747 114 123 132
0.0357353935 0.0215282528 -0.0625547278 110 117 127
0.0355904515 0.0218260394 -0.0634492293 111 118 126
0.0366140300 0.0210824879 -0.0628302022 107 116 123
0.0362222813 0.0215141243 -0.0636835194 108 115 125
0.0392937639 0.0193398646 -0.0620646374 148 176 213
0.0422168309 0.0174224123 -0.0636532225 96 104 115
0.0403899507 0.0186820498 -0.0628172690 154 180 203
0.0404228932 0.0186594684 -0.0624695992 154 180 203
0.0393748593 0.0193814509 -0.0637382217 106 119 138
0.0410684417 0.0182140843 -0.0635233425 95 114 128
0.0409476817 0.0182972633 -0.0637012425 93 113 124
0.0401465311 0.0188497233 -0.0631565310 124 145 164
0.0401755314 0.0188296570 -0.0633629100 124 145 164
0.0349087933 0.0218818582 -0.0602753899 114 123 132
0.0337299212 0.0223990685 -0.0605959544 114 119 125
0.0344947029 0.0220002566 -0.0596832898 110 117 125
0.0344026894 0.0219999963 -0.0592558257 115 122 130
0.0345853899 0.0220472878 -0.0606255112 115 124 133
0.0349990277 0.0217896414 -0.0596647448 113 122 131
0.0336592285 0.0223237104 -0.0594305191 113 118 124
0.0322628976 0.0232409054 -0.0572794808 116 121 124
0.0324946379 0.0229829201 -0.0582672070 115 120 123
0.0314652584 0.0235333342 -0.0578899111 119 125 125
0.0312094950 0.0236316165 -0.0580552451 122 126 129
0.0325002378 0.0228550763 -0.0591099416 115 120 123
0.0322948996 0.0231751966 -0.0576184427 115 120 123
0.0305409181 0.0238157486 -0.0589775181 123 127 130
0.0312594918 0.0236644485 -0.0576724819 122 126 129
0.0314782270 0.0234114345 -0.0586687912 118 122 123
0.0309462658 0.0236283643 -0.0589284118 121 125 128
0.0432351196 0.0162949588 -0.0624370060 109 129 153
0.0439954615 0.0153675410 -0.0610276942 186 216 252
0.0433086931 0.0162003061 -0.0622579781 132 156 184
0.0438889683 0.0155425742 -0.0616170675 140 169 201
0.0432362543 0.0162965484 -0.0624607250 109 129 153
0.0431449177 0.0162956330 -0.0616546289 166 194 231
0.0433390652 0.0161441209 -0.0620354802 122 147 177
0.0439146037 0.0153668583 -0.0603151890 168 196 233
0.0432902337 0.0162265225 -0.0623243296 109 129 153
0.0433384939 0.0162747935 -0.0631652319 94 107 123
0.0431368759 0.0162746232 -0.0614019095 166 194 231
0.0438645912 0.0158391501 -0.0639794737 89 99 109
0.0429668705 0.0167021429 -0.0636288391 89 102 111
0.0452038783 0.0139296134 -0.0625396658 90 109 126
0.0452809005 0.0140779569 -0.0638428611 91 102 106
0.0452600236 0.0140950477 -0.0637917170 91 102 106
0.0456485502 0.0135801400 -0.0637057482 85 96 100
0.0443677616 0.0152579912 -0.0638860454 85 97 109
0.0452654980 0.0139546064 -0.0630883352 89 103 114
0.0452233817 0.0141695254 -0.0639364609 91 102 106
0.0456579702 0.0135511676 -0.0636167362 88 98 107
0.0448736109 0.0144099192 -0.0628373775 112 130 152
0.0450890351 0.0143785480 -0.0641294932 91 100 107
0.0480673441 0.0089840616 -0.0623389990 87 102 121
0.0478161211 0.0095534566 -0.0613510290 124 145 176
0.0481240841 0.0088907379 -0.0609339633 177 197 224
0.0481271666 0.0088818559 -0.0610335626 177 197 224
0.0480519146 0.0090508843 -0.0608082311 178 197 227
0.0479667940 0.0091870067 -0.0630951572 81 91 103
0.0481454000 0.0088553436 -0.0604215667 162 184 208
0.0478547291 0.0094600691 -0.0617743705 110 127 155
0.0477948010 0.0095990707 -0.0613921582 124 145 176
0.0472629433 0.0107083232 -0.0637405136 78 91 99
0.0477762194 0.0095873474 -0.0638039344 80 90 102
0.0481009524 0.0089713797 -0.0595408094 76 97 116
0.0479277306 0.0093279528 -0.0605226462 173 193 220
0.0479257073 0.0093350261 -0.0603998777 173 193 220
0.0482033439 0.0087045377 -0.0615483558 116 136 163
0.0491381589 0.0066868046 -0.0640388601 127 171 216
0.0487649769 0.0074123169 -0.0634512997 160 198 237
0.0488074848 0.0072997474 -0.0630928763 157 192 232
0.0492023137 0.0063926367 -0.0617317332 152 195 240
0.0490180292 0.0068586362 -0.0629726143 97 141 190
0.0501534833 0.0040589722 -0.0621873054 65 96 125
0.0503620264 0.0036481659 -0.0660956335 152 192 228
0.0498031821 0.0049325095 -0.0622033925 138 180 228
0.0504115482 0.0034280015 -0.0626259220 77 96 110
0.0503689193 0.0035297722 -0.0624653355 74 96 110
0.0501413089 0.0040953334 -0.0624031445 65 96 125
0.0502298153 0.0038588339 -0.0618326178 83 113 141
0.0503671871 0.0035138019 -0.0617376634 82 104 127
0.0498376450 0.0048717377 -0.0631045026 142 185 230
0.0505076628 0.0031821216 -0.0623990790 115 127 141
0.0502800450 0.0037750820 -0.0633189840 77 104 125
0.0503717504 0.0034805435 -0.0609527083 118 142 170
0.0502412538 0.0038806255 -0.0636367874 76 107 128
0.0503844103 0.0034535301 -0.0611155476 117 137 162
0.0498151431 0.0048875133 -0.0616587540 120 158 207
0.0504649268 0.0033481514 -0.0645337334 104 129 149
0.0499703516 0.0045293122 -0.0626859900 102 134 173
0.0503673728 0.0035301777 -0.0623416284 74 96 110
0.0499965240 0.0044898975 -0.0636119911 109 143 180
0.0500886110 0.0041873550 -0.0609927488 128 157 191
0.0502886717 0.0037332943 -0.0625913450 78 101 117
0.0501441637 0.0040897928 -0.0624596277 65 96 125
0.0501899802 0.0039995509 -0.0633186920 74 104 132
0.0468425694 0.0115177405 -0.0637639780 86 97 103
0.0464495420 0.0122539382 -0.0639288280 83 96 102
0.0466999706 0.0117697470 -0.0637583640 89 100 106
0.0462018992 0.0124289949 -0.0627814724 93 110 118
0.0463669785 0.0121800379 -0.0629732980 104 122 136
0.0459377474 0.0125848718 -0.0614239786 140 163 207
0.0459972764 0.0130912038 -0.0640756617 84 97 103
0.0456913439 0.0131863440 -0.0621335129 88 106 126
0.0465379685 0.0119584679 -0.0633292588 92 107 114
0.0465643648 0.0119043477 -0.0632979290 92 107 114
0.0465075415 0.0120122676 -0.0633281814 92 107 114
0.0351072431 0.0221825261 -0.0642248568 111 118 126
0.0341793665 0.0226283190 -0.0642916848 117 122 128
0.0348171999 0.0223788796 -0.0646767974 111 118 126
0.0346224622 0.0223641021 -0.0638715950 113 120 126
0.0344383081 0.0225820420 -0.0648638363 116 121 127
0.0344273724 0.0225331405 -0.0644551125 116 121 127
0.0350583604 0.0222281245 -0.0643955906 111 118 126
0.0380663188 0.0203094845 -0.0639373432 101 115 124
0.0395266675 0.0192810378 -0.0627969217 130 150 183
0.0376370234 0.0206237516 -0.0638689710 99 112 121
0.0382329757 0.0201859788 -0.0640147356 99 112 118
0.0374832820 0.0207433912 -0.0636046657 100 113 122
0.0372155582 0.0209226499 -0.0641276857 104 113 122
0.0399573189 0.0191065534 -0.0659943320 102 112 121
0.0417709566 0.0177363133 -0.0638852418 98 108 118
0.0416465529 0.0178161770 -0.0638026976 97 107 117
0.0402542165 0.0187849173 -0.0640836100 98 115 125
0.0410998221 0.0183753332 -0.0667883553 96 106 118
0.0406785371 0.0187624352 -0.0683851229 97 107 117
0.0405177969 0.0188272953 -0.0676619194 99 109 119
0.0411289855 0.0183408399 -0.0665540261 96 106 118
0.0409260712 0.0185173635 -0.0671634536 97 107 117
0.0414524809 0.0179812938 -0.0643258209 97 107 117
0.0399532377 0.0190771334 -0.0654762601 98 111 117
0.0404587578 0.0187125474 -0.0651673778 98 111 119
0.0417297179 0.0178641444 -0.0654882096 97 105 118
0.0412516472 0.0182274946 -0.0660788736 96 106 118
0.0409550902 0.0184738719 -0.0667827982 97 107 119
0.0396075469 0.0193248710 -0.0656621008 101 112 118
0.0401336220 0.0189579697 -0.0655418706 98 111 117
0.0395302415 0.0193850441 -0.0657804273 101 112 118
0.0405222622 0.0186087443 -0.0641955943 94 111 119
0.0414623159 0.0179915484 -0.0645988500 96 106 116
0.0411079469 0.0181885663 -0.0638734929 96 113 123
0.0394136230 0.0194262155 -0.0651610740 98 108 117
0.0330815315 0.0226500005 -0.0601709339 113 118 122
0.0316721618 0.0232313522 -0.0594405964 119 123 124
0.0306258607 0.0237204064 -0.0594743205 122 126 129
0.0317578928 0.0232250310 -0.0597760844 119 123 124
0.0335542208 0.0225113389 -0.0609803082 116 121 127
0.0320411691 0.0231292633 -0.0601341551 117 122 125
0.0334143518 0.0225094904 -0.0603110815 115 120 126
0.0317878352 0.0232945887 -0.0606124973 118 123 126
0.0310019726 0.0235430894 -0.0594469877 119 123 124
0.0299114218 0.0240549400 -0.0595033202 125 129 132
0.0301834079 0.0240547645 -0.0586402029 125 129 132
0.0297524066 0.0243020971 -0.0585883741 125 129 132
0.0304139084 0.0244260172 -0.0562029243 127 128 130
0.0304510545 0.0243887484 -0.0562854851 126 127 129
0.0311824475 0.0239454690 -0.0564888001 123 127 128
0.0305738652 0.0240112983 -0.0578030354 122 126 129
0.0299441360 0.0243838713 -0.0576724838 127 128 132
0.0298946034 0.0243967257 -0.0577427506 128 129 133
0.0293162617 0.0250221401 -0.0562362404 128 130 129
0.0299194491 0.0247100105 -0.0561422656 128 129 131
0.0300246014 0.0246524760 -0.0561411653 128 129 131
0.0307980623 0.0238795875 -0.0578449462 121 125 126
0.0436420280 0.0160250573 -0.0657829122 89 101 113
0.0441476564 0.0155192309 -0.0663685354 89 99 111
0.0431953464 0.0164994007 -0.0642730087 92 102 111
0.0437307666 0.0159447199 -0.0655810675 88 100 112
0.0439368395 0.0157590265 -0.0650809185 87 100 109
0.0436144373 0.0160621335 -0.0654088265 89 102 111
0.0446465042 0.0149621216 -0.0643431592 90 102 114
0.0446899121 0.0148866048 -0.0649612007 89 99 109
0.0449546165 0.0145421465 -0.0651650932 89 99 109
0.0447314142 0.0148039802 -0.0658723083 88 98 108
0.0443061720 0.0153554650 -0.0656025227 89 99 111
0.0443112112 0.0153636729 -0.0651528184 89 99 111
0.0473692539 0.0105007442 -0.0651602770 81 90 99
0.0483153602 0.0084089116 -0.0643356421 77 93 106
0.0475225766 0.0101505277 -0.0644961616 80 90 100
0.0479051161 0.0093278401 -0.0652549357 81 91 100
0.0474695635 0.0102939287 -0.0657804446 80 87 97
0.0471439902 0.0109820717 -0.0645657949 80 90 99
0.0472078633 0.0108896689 -0.0668180326 70 86 102
0.0476615233 0.0098363899 -0.0640475414 79 89 99
0.0479759084 0.0091750114 -0.0653677960 81 90 97
0.0476357871 0.0098938175 -0.0640947998 80 90 100
0.0472633601 0.0107156304 -0.0643428228 78 91 99
0.0471796863 0.0109256772 -0.0655997228 82 91 100
0.0476458455 0.0099136740 -0.0660760498 77 84 92
0.0472350140 0.0107709499 -0.0640199107 78 91 99
0.0492021118 0.0068870956 -0.0674758373 68 86 88
0.0489827183 0.0072922212 -0.0670027697 74 89 92
0.0490529364 0.0071031159 -0.0665492350 72 91 97
0.0487637864 0.0075925871 -0.0654732416 70 92 105
0.0485243343 0.0079738901 -0.0643375319 71 98 117
0.0490998105 0.0069096256 -0.0655620498 75 107 130
0.0489962829 0.0072066804 -0.0664163881 75 90 93
0.0488409893 0.0073621495 -0.0647453920 83 117 145
0.0492413595 0.0067221457 -0.0666193420 72 96 106
0.0494218159 0.0058872009 -0.0622789658 113 158 197
0.0494803873 0.0057657311 -0.0628099952 90 135 174
0.0495522057 0.0057150759 -0.0647540525 151 196 235
0.0497214013 0.0051927897 -0.0640333940 108 151 194
0.0493783975 0.0059870431 -0.0620142074 154 199 240
0.0495809359 0.0056154905 -0.0644883133 151 196 235
0.0494902888 0.0058767128 -0.0646298065 153 197 236
0.0499294242 0.0047849978 -0.0662301312 160 214 252
0.0496689988 0.0053940609 -0.0647763439 144 191 233
0.0462671369 0.0124914975 -0.0654304099 86 92 106
0.0458848954 0.0132222493 -0.0653549245 86 96 108
0.0458577454 0.0130273086 -0.0679949237 97 106 113
0.0458133228 0.0132237453 -0.0667911137 139 149 161
0.0459924962 0.0129484001 -0.0661064400 85 92 108
0.0457064119 0.0133869403 -0.0672114479 155 165 177
0.0467074234 0.0117508400 -0.0644343073 83 92 99
0.0455999387 0.0134583369 -0.0686066753 87 97 109
0.0463848939 0.0121920343 -0.0662503517 88 92 101
0.0459801441 0.0131059446 -0.0646687113 85 98 107
0.0460477053 0.0129734628 -0.0647176465 86 99 108
0.0458096635 0.0133382311 -0.0656384531 84 93 108
0.0459259095 0.0130575538 -0.0662877304 86 93 109
0.0357416103 0.0219282762 -0.0645806798 109 116 126
0.0354443728 0.0221851929 -0.0658019804 109 116 124
0.0362903527 0.0217405067 -0.0655461794 111 115 126
0.0360660357 0.0219298988 -0.0664173347 111 118 126
0.0363938763 0.0217339880 -0.0660531743 111 115 126
0.0361811630 0.0217792766 -0.0653698771 109 116 126
0.0340552413 0.0227919648 -0.0651586070 117 122 128
0.0336990441 0.0227037401 -0.0632841244 117 121 130
0.0339943322 0.0227435014 -0.0645717771 117 122 128
0.0322314452 0.0231942166 -0.0623743057 117 122 126
0.0322669793 0.0231349267 -0.0620180438 118 123 127
0.0329077037 0.0229917852 -0.0629816462 119 124 130
0.0333387607 0.0228798475 -0.0635051652 118 122 131
0.0330552126 0.0229392265 -0.0630470766 119 124 130
0.0327853462 0.0230735150 -0.0632316107 118 123 129
0.0336184639 0.0227808667 -0.0636346579 117 122 128
0.0339756403 0.0228116814 -0.0650543171 117 122 128
0.0368285877 0.0213186901 -0.0651139482 109 111 123
0.0378860006 0.0204911839 -0.0645727320 100 111 117
0.0373851689 0.0208428598 -0.0645210882 105 112 120
0.0368114423 0.0213183304 -0.0650173369 109 111 123
0.0368124794 0.0212150655 -0.0642331100 107 114 122
0.0380292000 0.0203446259 -0.0642355863 100 111 117
0.0366900901 0.0214758263 -0.0655577482 110 112 124
0.0363482342 0.0216769755 -0.0652249669 110 114 125
0.0384551965 0.0203015917 -0.0669151585 101 110 119
0.0376798534 0.0207794555 -0.0657268924 104 113 122
0.0384441254 0.0201050428 -0.0647870733 101 112 118
0.0384917892 0.0203075932 -0.0672676517 102 111 120
0.0387032358 0.0199482568 -0.0652143884 97 106 115
0.0390185704 0.0199152172 -0.0673721404 100 109 118
0.0381395798 0.0204169572 -0.0656097590 101 110 117
0.0390020452 0.0197853224 -0.0658927096 98 107 114
0.0395446786 0.0194512025 -0.0667276427 100 109 118
0.0383991637 0.0201319192 -0.0647095017 101 112 118
0.0400693187 0.0191466255 -0.0677265554 100 110 120
0.0398315168 0.0193599713 -0.0680553465 101 111 121
0.0395440145 0.0194467143 -0.0666757869 100 109 118
0.0386878448 0.0201221020 -0.0668969428 102 111 120
0.0386875909 0.0201791916 -0.0674875524 100 109 118
0.0376506456 0.0208210292 -0.0659268213 104 113 122
0.0371323369 0.0213241802 -0.0670394289 105 112 122
0.0396682513 0.0193591943 -0.0667525242 101 110 119
0.0388436696 0.0199093765 -0.0659244822 97 106 113
0.0421793966 0.0176034722 -0.0663656796 95 105 117
0.0415142994 0.0181498907 -0.0678065470 98 106 117
0.0424411199 0.0174016705 -0.0660253229 92 105 114
0.0415654764 0.0180361903 -0.0664672522 94 106 118
0.0422639055 0.0175372334 -0.0662372961 95 105 117
0.0418100107 0.0178300676 -0.0658479595 96 106 118
0.0419689596 0.0177633135 -0.0665979213 96 106 118
0.0308727273 0.0236689447 -0.0602424523 121 125 126
0.0317075386 0.0233340525 -0.0615596100 118 123 127
0.0321151008 0.0231683198 -0.0616328786 118 123 127
0.0311213049 0.0235703189 -0.0609133654 119 124 127
0.0312798056 0.0235062767 -0.0610466422 119 124 127
0.0318228829 0.0232864607 -0.0614050489 118 123 127
0.0291662809 0.0245939648 -0.0587832109 130 131 133
0.0290796000 0.0248221684 -0.0578916277 129 130 132
0.0291217819 0.0247749955 -0.0580070893 129 130 132
0.0293168154 0.0248365216 -0.0571470492 129 130 132
0.0290126136 0.0253112879 -0.0556435911 129 131 130
0.0292513629 0.0244790117 -0.0591148160 126 130 133
0.0432292627 0.0165572173 -0.0665579359 90 103 112
0.0430711277 0.0167401819 -0.0665588857 90 103 111
0.0427410315 0.0170039263 -0.0651588618 93 103 112
0.0435106869 0.0162073882 -0.0662689556 90 103 112
0.0428259182 0.0169109390 -0.0652203706 93 103 112
0.0430245384 0.0167772808 -0.0663597981 90 105 112
0.0427280644 0.0170750502 -0.0658247061 90 104 113
0.0428678492 0.0168265798 -0.0647948923 93 103 112
0.0454338537 0.0137927306 -0.0670941306 104 116 130
0.0455970699 0.0135165412 -0.0679997509 129 139 151
0.0455821350 0.0137236545 -0.0651444881 89 97 108
0.0452259246 0.0141917706 -0.0652209612 88 96 107
0.0444301064 0.0151202405 -0.0671811070 89 97 108
0.0450448589 0.0142375475 -0.0681897342 84 97 113
0.0455880842 0.0135797476 -0.0672180550 134 146 160
0.0451366133 0.0142887058 -0.0655516751 88 96 107
0.0448806589 0.0144967034 -0.0675637341 84 94 104
0.0444826805 0.0150535902 -0.0671326164 88 97 106
0.0456312032 0.0136688687 -0.0649861032 89 97 108
0.0451992013 0.0140394046 -0.0680851367 81 94 110
0.0470667159 0.0111436316 -0.0663642224 81 91 103
0.0462593620 0.0123920983 -0.0683864856 82 95 101
0.0470461214 0.0111737246 -0.0661959539 82 91 100
0.0469933665 0.0112404435 -0.0644651440 80 90 99
0.0467817047 0.0115759579 -0.0660242524 83 91 94
0.0467236340 0.0116594028 -0.0653731276 86 93 99
0.0468074521 0.0115404536 -0.0665001985 79 88 93
0.0470309045 0.0111891951 -0.0652235199 82 91 98
0.0471047363 0.0110974009 -0.0678440035 186 215 245
0.0462435023 0.0124162042 -0.0683736559 82 95 101
0.0466338273 0.0118050208 -0.0664435421 82 91 96
0.0471002007 0.0110882803 -0.0658326048 82 91 100
0.0485753892 0.0081364450 -0.0673138818 74 83 92
0.0475140350 0.0102790863 -0.0676856488 104 131 152
0.0484296785 0.0084104457 -0.0671350565 77 86 93
0.0487197093 0.0079026772 -0.0679199774 76 86 95
0.0486317691 0.0081099301 -0.0682897063 75 85 95
0.0481854194 0.0089262973 -0.0674800013 74 87 95
0.0476790078 0.0099255115 -0.0673937391 68 86 100
0.0483283992 0.0084520356 -0.0653132255 78 91 99
0.0486118240 0.0080077407 -0.0666722084 79 86 92
0.0489653602 0.0074633564 -0.0684793102 70 81 87
0.0486056125 0.0079261817 -0.0656013255 73 90 98
0.0484116152 0.0083018258 -0.0654868900 78 89 95
0.0486160887 0.0078975522 -0.0655123507 73 90 98
0.0478349066 0.0096807970 -0.0681375036 89 111 125
0.0485138568 0.0083315860 -0.0681441815 75 85 97
0.0478164935 0.0095754140 -0.0665183205 79 88 93
0.0489069755 0.0076261523 -0.0690121241 73 82 89
0.0482947008 0.0086941009 -0.0673096545 77 88 94
0.0477620926 0.0097360880 -0.0671172512 72 85 93
0.0480701066 0.0089818247 -0.0654989540 78 89 95
0.0487524205 0.0077136265 -0.0665057230 76 86 88
0.0496160045 0.0057035913 -0.0666877592 69 99 123
0.0497866965 0.0052525578 -0.0669969280 77 110 129
0.0493938031 0.0062084617 -0.0653548092 90 129 160
0.0495846566 0.0057884912 -0.0666543555 71 97 120
0.0498134469 0.0052680371 -0.0680199010 66 90 100
0.0501123914 0.0044089279 -0.0677789016 89 130 158
0.0498095998 0.0051197494 -0.0662208217 126 176 213
0.0494998266 0.0059207750 -0.0654616571 119 162 197
0.0498747726 0.0050051233 -0.0669901573 84 121 140
0.0501891955 0.0041337682 -0.0671012717 149 193 230
0.0497387856 0.0053427470 -0.0664983551 88 129 161
0.0502362272 0.0040535317 -0.0676845438 122 166 201
0.0494866291 0.0060201242 -0.0661669838 77 111 138
0.0498525640 0.0050601927 -0.0669090556 97 139 164
0.0495148681 0.0060345238 -0.0672249285 72 91 106
0.0501705948 0.0042556975 -0.0678907152 89 130 158
0.0493623691 0.0062254223 -0.0645502794 124 168 205
0.0344442884 0.0226539451 -0.0669757495 116 121 127
0.0353298487 0.0222617721 -0.0671465848 109 120 122
0.0356820458 0.0220998813 -0.0679372503 110 117 123
0.0346421662 0.0225605929 -0.0677124902 113 120 126
0.0354565480 0.0222095506 -0.0666963456 109 118 125
0.0357727381 0.0220677742 -0.0669710987 111 118 126
0.0349710780 0.0224068859 -0.0687585104 113 118 122
0.0350900367 0.0223675525 -0.0671517282 110 121 123
0.0347250347 0.0225290085 -0.0671040507 113 120 126
0.0319877169 0.0233372316 -0.0633335485 121 126 130
0.0326246139 0.0231365001 -0.0644452908 119 124 130
0.0323694240 0.0231904985 -0.0643752360 120 125 131
0.0310298012 0.0235449610 -0.0629990908 121 126 129
0.0307995727 0.0235091213 -0.0641368713 122 127 130
0.0312242390 0.0234689603 -0.0635475600 122 127 130
0.0316781157 0.0233572423 -0.0638948274 121 126 130
0.0324458990 0.0231835937 -0.0642644610 118 123 129
0.0383449402 0.0204828515 -0.0682197318 100 109 118
0.0394178754 0.0197067157 -0.0685193445 100 110 120
0.0390735919 0.0199610951 -0.0685738388 98 108 118
0.0370085155 0.0214228438 -0.0670910823 105 112 122
0.0393949213 0.0197399130 -0.0689816210 100 110 119
0.0382129559 0.0205651937 -0.0678119442 101 110 119
0.0377491823 0.0208965115 -0.0675647933 104 113 122
0.0387160690 0.0202146896 -0.0683319501 100 108 119
0.0429901254 0.0166287866 -0.0674525110 92 102 112
0.0424750868 0.0171008410 -0.0678173200 91 104 113
0.0423203132 0.0172643078 -0.0678631610 91 103 115
0.0417893470 0.0178392367 -0.0679786857 96 106 118
0.0435540453 0.0161118188 -0.0670534080 92 102 114
0.0303717186 0.0238807561 -0.0609241570 121 125 126
0.0303931660 0.0238670696 -0.0607304830 121 125 126
0.0302076575 0.0239519889 -0.0608593841 122 126 127
0.0293155811 0.0243401612 -0.0605462877 127 131 134
0.0293565015 0.0243624922 -0.0594106336 126 129 134
0.0288447308 0.0246582500 -0.0594424065 129 133 134
0.0441634486 0.0153806838 -0.0673643015 89 97 108
0.0446062945 0.0148047416 -0.0678789781 89 97 108
0.0452946172 0.0138062334 -0.0692005166 125 138 157
0.0423604629 0.0171042635 -0.0684054404 91 104 113
0.0439667156 0.0156443347 -0.0670963291 89 99 111
0.0421223516 0.0174109047 -0.0681440236 94 104 116
0.0417792547 0.0176994973 -0.0685410250 95 105 117
0.0442952751 0.0150062453 -0.0685423137 87 95 106
0.0420797428 0.0173932597 -0.0684633449 91 105 118
0.0417768818 0.0176583240 -0.0687617106 92 106 119
0.0442397599 0.0152606979 -0.0675576935 89 97 108
0.0443562409 0.0149724831 -0.0683833268 87 95 106
0.0421536376 0.0172613333 -0.0687300766 91 103 117
0.0425656049 0.0168477425 -0.0685919787 92 102 112
0.0430375619 0.0163134658 -0.0687390027 92 100 113
0.0445624911 0.0145964987 -0.0691669870 83 92 107
0.0423312581 0.0170752158 -0.0687098983 93 103 115
0.0464932451 0.0120354595 -0.0690018747 114 135 152
0.0467779048 0.0115804911 -0.0725885473 169 209 245
0.0458436375 0.0130323200 -0.0692856791 90 101 107
0.0469174935 0.0113679963 -0.0721773090 179 223 248
0.0464276202 0.0121219901 -0.0719300965 184 227 255
0.0467895593 0.0115670529 -0.0716739076 190 238 255
0.0469086474 0.0113763515 -0.0732489091 103 139 163
0.0469545068 0.0113122604 -0.0719436833 173 217 242
0.0468341716 0.0115110252 -0.0691112544 188 222 250
0.0460563174 0.0127002864 -0.0703513963 146 172 185
0.0467356125 0.0116506435 -0.0715325710 188 237 254
0.0471041187 0.0110940827 -0.0695441774 180 233 247
0.0469241431 0.0113665756 -0.0703776617 187 238 255
0.0463638983 0.0122343889 -0.0689685391 94 114 125
0.0462940672 0.0123388324 -0.0695547209 170 199 213
0.0468770629 0.0114447923 -0.0691771417 185 227 249
0.0465155957 0.0119901177 -0.0712511565 188 233 254
0.0477690183 0.0098317856 -0.0690309207 172 206 234
0.0480938594 0.0091627214 -0.0715698847 83 104 121
0.0483975416 0.0086053729 -0.0700445288 85 108 124
0.0476199956 0.0100541840 -0.0727037392 86 99 116
0.0474140041 0.0104627390 -0.0719931886 120 156 182
0.0485077173 0.0083794973 -0.0708456005 71 89 99
0.0483211531 0.0087403369 -0.0707276083 82 107 127
0.0477588794 0.0098143564 -0.0711440134 107 138 167
0.0473980907 0.0105060248 -0.0712674175 171 218 248
0.0476692070 0.0099695799 -0.0721296059 90 111 132
0.0489374096 0.0075685551 -0.0699649570 73 82 89
0.0479122056 0.0095207068 -0.0710748520 94 122 146
0.0477689905 0.0098412007 -0.0684952299 148 176 198
0.0479152969 0.0095577021 -0.0686176753 153 180 209
0.0471874066 0.0108734583 -0.0734263656 74 100 115
0.0472747747 0.0107345508 -0.0717607089 139 181 206
0.0474889267 0.0103432433 -0.0705862785 184 233 255
0.0481215241 0.0091172861 -0.0711254773 90 116 139
0.0471401983 0.0110207798 -0.0701911857 181 236 255
0.0484602576 0.0084887931 -0.0698140415 79 97 111
0.0472282796 0.0108234193 -0.0717919038 139 181 206
0.0480822172 0.0092229811 -0.0694027957 186 217 246
0.0475740899 0.0101617525 -0.0716000077 108 138 166
0.0474811796 0.0103795126 -0.0693633638 180 228 250
0.0472893163 0.0106833226 -0.0730919185 83 104 121
0.0473003714 0.0107262386 -0.0694195720 182 233 250
0.0473417333 0.0105972551 -0.0722487650 108 140 163
0.0500750689 0.0047648915 -0.0696523037 72 90 94
0.0500004162 0.0048101111 -0.0685875091 70 95 100
0.0498500453 0.0054625663 -0.0702313558 71 79 92
0.0498546115 0.0053244619 -0.0693830991 70 83 92
0.0502166491 0.0042203233 -0.0685752551 73 110 128
0.0498586002 0.0055059631 -0.0706812314 73 81 92
0.0498612927 0.0055859519 -0.0712704788 69 79 91
